   1.119   0.1489257812  0.88264     2685.00000 0.9015       0.984636       0.098457
  -3.070   0.1535644531  0.76869     2589.50000 0.9132       0.868471       0.086847
  30.243   0.1535644531  0.77050     2681.00000 0.8576       1.423933       0.142389
  29.733   0.1535644531  0.78820     2681.50000 0.8686       1.313778       0.131375
  28.079   0.1535644531  0.80760     2682.00000 0.8814       1.186328       0.118631
   9.182   0.1535644531  0.86284     2684.00000 0.9118       0.882437       0.088242
   4.490   0.1535644531  0.86644     2684.50000 0.9090       0.909972       0.090992
  31.208   0.1582031250  0.76602     2681.00000 0.8601       1.398835       0.139878
  30.731   0.1582031250  0.78691     2681.50000 0.8715       1.285264       0.128522
  29.119   0.1582031250  0.80709     2682.00000 0.8844       1.155859       0.115583
  28.413   0.1628417969  0.75541     1947.50000 0.7660       2.340347       0.234009
   5.533   0.1628417969  0.77392     2251.50000 0.8775       1.224874       0.122487
   6.551   0.1628417969  0.82122     2252.00000 0.8834       1.165756       0.116576
   7.344   0.1628417969  0.84604     2252.50000 0.8853       1.147099       0.114709
   7.772   0.1628417969  0.82628     2253.00000 0.8826       1.173592       0.117356
   7.861   0.1628417969  0.79327     2253.50000 0.8759       1.240670       0.124059
   7.779   0.1628417969  0.75607     2254.00000 0.8665       1.334731       0.133461
  32.196   0.1628417969  0.76341     2681.00000 0.8631       1.369534       0.136947
  31.759   0.1628417969  0.78432     2681.50000 0.8746       1.253582       0.125353
  30.199   0.1628417969  0.80225     2682.00000 0.8877       1.122923       0.112287
   5.210   0.1674804688  0.77345     2251.50000 0.8803       1.197327       0.119733
   6.130   0.1674804688  0.82137     2252.00000 0.8860       1.139916       0.113991
   6.854   0.1674804688  0.84775     2252.50000 0.8875       1.124773       0.112476
   7.253   0.1674804688  0.83250     2253.00000 0.8843       1.156574       0.115653
   7.362   0.1674804688  0.80261     2253.50000 0.8770       1.230443       0.123035
   7.343   0.1674804688  0.76628     2254.00000 0.8668       1.332110       0.133197
  32.802   0.1674804688  0.76660     2681.50000 0.8781       1.218966       0.121890
  31.305   0.1674804688  0.78445     2682.00000 0.8912       1.087984       0.108792
   4.810   0.1721191406  0.78812     2251.50000 0.8832       1.168384       0.116838
   5.638   0.1721191406  0.83558     2252.00000 0.8887       1.112545       0.111254
   6.299   0.1721191406  0.86780     2252.50000 0.8899       1.101070       0.110105
   6.679   0.1721191406  0.86456     2253.00000 0.8861       1.138731       0.113868
   6.820   0.1721191406  0.82106     2253.50000 0.8780       1.220409       0.122031
   6.879   0.1721191406  0.77513     2254.00000 0.8669       1.331169       0.133100
  33.845   0.1721191406  0.75594     2681.50000 0.8818       1.181887       0.118181
  32.423   0.1721191406  0.76824     2682.00000 0.8948       1.051615       0.105154
   3.648   0.1767578125  0.77505     2251.00000 0.8774       1.226280       0.122627
   4.342   0.1767578125  0.80023     2251.50000 0.8862       1.138273       0.113827
   5.078   0.1767578125  0.82599     2252.00000 0.8916       1.083815       0.108381
   5.680   0.1767578125  0.84577     2252.50000 0.8924       1.076056       0.107604
   6.048   0.1767578125  0.84316     2253.00000 0.8880       1.119979       0.111992
   6.232   0.1767578125  0.81289     2253.50000 0.8790       1.210318       0.121020
   3.814   0.1813964844  0.75953     2251.50000 0.8893       1.107239       0.110724
   4.455   0.1813964844  0.77973     2252.00000 0.8946       1.053917       0.105392
   4.997   0.1813964844  0.79888     2252.50000 0.8950       1.049822       0.104980
   5.357   0.1813964844  0.79275     2253.00000 0.8900       1.100259       0.110020
   5.593   0.1813964844  0.75827     2253.50000 0.8800       1.199929       0.119979
   2.771   0.1860351562  0.77814     2251.00000 0.8834       1.165600       0.116559
   3.233   0.1860351562  0.82485     2251.50000 0.8924       1.075534       0.107553
   3.773   0.1860351562  0.81694     2252.00000 0.8977       1.023062       0.102306
   4.251   0.1860351562  0.79382     2252.50000 0.8978       1.022488       0.102247
   4.605   0.1860351562  0.77548     2253.00000 0.8921       1.079548       0.107948
   4.901   0.1860351562  0.75146     2253.50000 0.8811       1.189038       0.118888
   2.270   0.1906738281  0.75112     2251.00000 0.8865       1.135013       0.113500
   2.606   0.1906738281  0.79231     2251.50000 0.8957       1.043404       0.104340
   3.035   0.1906738281  0.78856     2252.00000 0.9009       0.991461       0.099146
   3.443   0.1906738281  0.76648     2252.50000 0.9006       0.994196       0.099417
   1.737   0.1953125000  0.78395     2251.00000 0.8895       1.104579       0.110456
   1.939   0.1953125000  0.83551     2251.50000 0.8989       1.011080       0.101108
   2.244   0.1953125000  0.84058     2252.00000 0.9041       0.959328       0.095933
   2.572   0.1953125000  0.79016     2252.50000 0.9035       0.965108       0.096508
   1.183   0.1999511719  0.75792     2251.00000 0.8926       1.074507       0.107448
   1.237   0.1999511719  0.80733     2251.50000 0.9021       0.978773       0.097877
   1.404   0.1999511719  0.81494     2252.00000 0.9073       0.926863       0.092686
   1.641   0.1999511719  0.76757     2252.50000 0.9065       0.935394       0.093537
   0.612   0.2045898438  0.79019     2251.00000 0.8955       1.044981       0.104495
   0.506   0.2045898438  0.83644     2251.50000 0.9053       0.946669       0.094666
   0.517   0.2045898438  0.83816     2252.00000 0.9106       0.894253       0.089425
   0.648   0.2045898438  0.81268     2252.50000 0.9095       0.905228       0.090520
   0.962   0.2045898438  0.75984     2253.00000 0.9012       0.987807       0.098771
   0.031   0.2092285156  0.76368     2251.00000 0.8984       1.016153       0.101612
  -0.249   0.2092285156  0.81533     2251.50000 0.9085       0.914926       0.091492
  -0.414   0.2092285156  0.81915     2252.00000 0.9138       0.861665       0.086166
  -0.404   0.2092285156  0.79256     2252.50000 0.9125       0.874777       0.087475
  -0.553   0.2138671875  0.79880     2251.00000 0.9012       0.988149       0.098811
  -1.024   0.2138671875  0.82684     2251.50000 0.9116       0.883672       0.088367
  -1.388   0.2138671875  0.83625     2252.00000 0.9171       0.829244       0.082924
  -1.516   0.2138671875  0.82747     2252.50000 0.9156       0.844201       0.084417
  -1.137   0.2185058594  0.77780     2251.00000 0.9039       0.961062       0.096102
  -1.816   0.2185058594  0.81195     2251.50000 0.9147       0.853010       0.085300
  -2.402   0.2185058594  0.82241     2252.00000 0.9203       0.797113       0.079711
  -2.686   0.2185058594  0.81220     2252.50000 0.9186       0.813649       0.081362
  -1.717   0.2231445312  0.79406     2251.00000 0.9065       0.934961       0.093492
  -2.621   0.2231445312  0.81991     2251.50000 0.9177       0.823018       0.082301
  -3.456   0.2231445312  0.83257     2252.00000 0.9235       0.765376       0.076537
  -3.914   0.2231445312  0.83284     2252.50000 0.9217       0.783255       0.078322
  -2.289   0.2277832031  0.77996     2251.00000 0.9090       0.909893       0.090984
  -3.438   0.2277832031  0.80815     2251.50000 0.9206       0.793751       0.079374
  -4.549   0.2277832031  0.82109     2252.00000 0.9266       0.734117       0.073412
  -2.852   0.2324218750  0.76606     2251.00000 0.9114       0.885881       0.088583
  -4.265   0.2324218750  0.79638     2251.50000 0.9235       0.765247       0.076524
  -3.403   0.2370605469  0.77452     2251.00000 0.9137       0.862931       0.086287
  -3.942   0.2416992188  0.76215     2251.00000 0.9159       0.841037       0.084097
 -78.335   0.4179687500  0.75645     2460.00000 0.7080       2.920484       0.292029
 -78.466   0.4226074219  0.76409     2460.00000 0.7018       2.982141       0.298193
 -78.597   0.4272460938  0.77142     2460.00000 0.6955       3.044808       0.304459
 -78.726   0.4318847656  0.77846     2460.00000 0.6892       3.108476       0.310824
 -78.855   0.4365234375  0.78523     2460.00000 0.6827       3.173129       0.317288
 -31.201   0.4411621094  0.75129     2039.00000 0.9646       0.354114       0.035410
 -78.982   0.4411621094  0.79172     2460.00000 0.6762       3.238755       0.323849
 -79.107   0.4458007812  0.79795     2460.00000 0.6695       3.305342       0.330506
 -79.231   0.4504394531  0.80393     2460.00000 0.6627       3.372878       0.337259
 -79.353   0.4550781250  0.80967     2460.00000 0.6559       3.441346       0.344104
 -79.474   0.4597167969  0.81518     2460.00000 0.6490       3.510740       0.351042
-112.068   0.4643554688  0.78111      644.50000 0.7870       2.130374       0.213036
 -79.592   0.4643554688  0.81127     2460.00000 0.6419       3.581042       0.358071
-112.248   0.4689941406  0.78827      644.50000 0.7803       2.196819       0.219680
 -79.708   0.4689941406  0.81640     2460.00000 0.6348       3.652242       0.365189
-112.423   0.4736328125  0.79515      644.50000 0.7736       2.264410       0.226440
 -79.823   0.4736328125  0.82134     2460.00000 0.6276       3.724327       0.372396
-112.593   0.4782714844  0.80175      644.50000 0.7667       2.333146       0.233313
 -79.935   0.4782714844  0.82610     2460.00000 0.6203       3.797286       0.379691
-112.758   0.4829101562  0.80808      644.50000 0.7597       2.403022       0.240301
 -80.045   0.4829101562  0.83069     2460.00000 0.6129       3.871103       0.387071
-112.918   0.4875488281  0.81416      644.50000 0.7526       2.474037       0.247403
 -80.153   0.4875488281  0.83511     2460.00000 0.6055       3.945768       0.394536
-113.074   0.4921875000  0.81999      644.50000 0.7454       2.546188       0.254618
 -80.259   0.4921875000  0.83936     2460.00000 0.5979       4.021265       0.402084
-113.225   0.4968261719  0.82558      644.50000 0.7381       2.619470       0.261946
 -80.362   0.4968261719  0.84346     2460.00000 0.5903       4.097584       0.409715
-113.372   0.5014648438  0.83093      644.50000 0.7306       2.693881       0.269388
 -80.463   0.5014648438  0.84740     2460.00000 0.5826       4.174710       0.417426
2009   9 20 21 25 350
  31.475   0.1071777344  0.75667     2486.00000 0.8177       1.822621       0.182258
  33.468   0.1071777344  0.75900     2486.50000 0.8247       1.753197       0.175320
  22.950   0.1118164062  0.77161     1286.00000 0.9388       0.612269       0.061224
  25.284   0.1118164062  0.79184     1286.50000 0.9375       0.624924       0.062491
  27.721   0.1118164062  0.80962     1287.00000 0.9323       0.677025       0.067702
  29.578   0.1118164062  0.80767     1287.50000 0.9228       0.772442       0.077244
  22.556   0.1118164062  0.75277     2480.50000 0.8996       1.004108       0.100402
  18.067   0.1118164062  0.75246     2481.00000 0.9058       0.942402       0.094232
  30.419   0.1118164062  0.79947     2486.00000 0.8228       1.772311       0.177229
  32.316   0.1118164062  0.79758     2486.50000 0.8296       1.703556       0.170355
  19.475   0.1164550781  0.81626     1286.00000 0.9384       0.616055       0.061603
  21.303   0.1164550781  0.82571     1286.50000 0.9369       0.631149       0.063114
  23.419   0.1164550781  0.81930     1287.00000 0.9316       0.683888       0.068388
  25.216   0.1164550781  0.81030     1287.50000 0.9223       0.776543       0.077654
  26.265   0.1164550781  0.80265     1288.00000 0.9098       0.901827       0.090180
  21.002   0.1164550781  0.78589     2480.50000 0.8968       1.031928       0.103184
  17.048   0.1164550781  0.78616     2481.00000 0.9022       0.978222       0.097815
  29.578   0.1164550781  0.82322     2486.00000 0.8261       1.738867       0.173886
  31.404   0.1164550781  0.82157     2486.50000 0.8331       1.668968       0.166896
  -1.599   0.1164550781  0.78270     3689.50000 0.7930       2.069781       0.206978
  15.958   0.1210937500  0.80246     1286.00000 0.9387       0.612710       0.061269
  17.418   0.1210937500  0.79468     1286.50000 0.9370       0.630507       0.063050
  19.364   0.1210937500  0.78573     1287.00000 0.9315       0.684930       0.068493
  21.208   0.1210937500  0.77819     1287.50000 0.9223       0.777229       0.077723
  22.478   0.1210937500  0.77332     1288.00000 0.9101       0.899448       0.089942
  23.008   0.1210937500  0.77204     1288.50000 0.8967       1.032670       0.103256
   8.256   0.1210937500  0.78888     2472.00000 0.8963       1.037116       0.103708
   0.499   0.1210937500  0.79127     2472.50000 0.9015       0.985221       0.098522
  19.747   0.1210937500  0.80355     2480.50000 0.8948       1.052044       0.105195
  16.167   0.1210937500  0.80307     2481.00000 0.8995       1.005375       0.100530
  28.925   0.1210937500  0.83266     2486.00000 0.8283       1.716878       0.171688
  30.700   0.1210937500  0.83256     2486.50000 0.8356       1.644029       0.164401
  38.399   0.1210937500  0.75170     2495.50000 0.8523       1.477099       0.147710
 -26.515   0.1210937500  0.86157     3686.50000 0.7471       2.529117       0.252911
 -23.269   0.1210937500  0.85655     3687.00000 0.7565       2.434752       0.243462
 -19.071   0.1210937500  0.85074     3687.50000 0.7668       2.331868       0.233156
  -9.667   0.1210937500  0.84058     3688.50000 0.7825       2.175215       0.217498
  -5.724   0.1210937500  0.83697     3689.00000 0.7865       2.134621       0.213457
  -2.895   0.1210937500  0.83386     3689.50000 0.7887       2.112639       0.211263
  15.242   0.1257324219  0.82301     2471.50000 0.8853       1.147148       0.114713
   7.696   0.1257324219  0.82252     2472.00000 0.8955       1.044614       0.104459
   0.065   0.1257324219  0.82410     2472.50000 0.9005       0.995253       0.099525
  18.688   0.1257324219  0.81872     2480.50000 0.8934       1.066580       0.106648
  15.378   0.1257324219  0.81628     2481.00000 0.8973       1.026789       0.102671
  28.441   0.1257324219  0.83591     2486.00000 0.8297       1.702749       0.170275
  30.180   0.1257324219  0.83687     2486.50000 0.8375       1.625068       0.162505
  37.867   0.1257324219  0.76197     2495.50000 0.8542       1.458239       0.145824
  40.527   0.1257324219  0.75405     2496.00000 0.8606       1.393731       0.139367
 -22.378   0.1257324219  0.86337     3687.00000 0.7607       2.392975       0.239295
 -18.516   0.1257324219  0.86227     3687.50000 0.7690       2.309926       0.230992
 -14.161   0.1257324219  0.86119     3688.00000 0.7762       2.237592       0.223757
  -9.825   0.1257324219  0.86036     3688.50000 0.7814       2.185891       0.218588
  -6.050   0.1257324219  0.85957     3689.00000 0.7844       2.156163       0.215616
  -3.227   0.1257324219  0.85822     3689.50000 0.7857       2.143254       0.214318
  14.537   0.1303710938  0.83994     2471.50000 0.8851       1.148738       0.114873
   6.869   0.1303710938  0.83912     2472.00000 0.8949       1.050879       0.105087
  -0.764   0.1303710938  0.83807     2472.50000 0.8995       1.004750       0.100475
  17.755   0.1303710938  0.82915     2480.50000 0.8923       1.076737       0.107662
  14.639   0.1303710938  0.82506     2481.00000 0.8956       1.044288       0.104420
  28.113   0.1303710938  0.83250     2486.00000 0.8306       1.693997       0.169400
  29.832   0.1303710938  0.83391     2486.50000 0.8391       1.609503       0.160948
  40.299   0.1303710938  0.75932     2496.00000 0.8617       1.383083       0.138304
 -17.739   0.1303710938  0.86324     3687.50000 0.7719       2.281568       0.228141
 -13.555   0.1303710938  0.86605     3688.00000 0.7777       2.222951       0.222288
  -9.377   0.1303710938  0.86857     3688.50000 0.7816       2.183850       0.218380
  -5.694   0.1303710938  0.87026     3689.00000 0.7835       2.165329       0.216524
  -2.881   0.1303710938  0.87038     3689.50000 0.7837       2.162810       0.216262
   5.801   0.1350097656  0.84554     2472.00000 0.8942       1.058202       0.105820
  -1.914   0.1350097656  0.84168     2472.50000 0.8984       1.016121       0.101612
  13.915   0.1350097656  0.82959     2481.00000 0.8941       1.058987       0.105889
  27.934   0.1350097656  0.82317     2486.00000 0.8311       1.688819       0.168882
  29.647   0.1350097656  0.82405     2486.50000 0.8405       1.595457       0.159543
  30.947   0.1350097656  0.82370     2487.00000 0.8529       1.470926       0.147082
  40.405   0.1350097656  0.75412     2496.00000 0.8623       1.376636       0.137661
  41.437   0.1350097656  0.75034     2496.50000 0.8719       1.280936       0.128077
  -4.839   0.1350097656  0.87021     3689.00000 0.7836       2.163994       0.216372
   4.518   0.1396484375  0.84423     2472.00000 0.8932       1.068272       0.106827
  -3.324   0.1396484375  0.84049     2472.50000 0.8969       1.031273       0.103127
  13.176   0.1396484375  0.82844     2481.00000 0.8929       1.071496       0.107138
  27.899   0.1396484375  0.80812     2486.00000 0.8314       1.685801       0.168580
  29.621   0.1396484375  0.80768     2486.50000 0.8419       1.581519       0.158149
  30.915   0.1396484375  0.80772     2487.00000 0.8552       1.447919       0.144782
  13.369   0.1396484375  0.75325     2838.00000 0.8568       1.431605       0.143156
   3.045   0.1442871094  0.83857     2472.00000 0.8918       1.082238       0.108224
  -4.940   0.1442871094  0.83855     2472.50000 0.8948       1.051692       0.105169
  12.396   0.1442871094  0.81998     2481.00000 0.8918       1.082055       0.108193
  29.752   0.1442871094  0.78666     2486.50000 0.8433       1.566609       0.156658
  31.050   0.1442871094  0.78947     2487.00000 0.8578       1.422365       0.142228
  -6.712   0.1489257812  0.83459     2472.50000 0.8922       1.078497       0.107849
  11.557   0.1489257812  0.80386     2481.00000 0.8910       1.090625       0.109049
  30.035   0.1489257812  0.76512     2486.50000 0.8450       1.549904       0.154988
  31.350   0.1489257812  0.77326     2487.00000 0.8606       1.393855       0.139378
  30.633   0.1489257812  0.76342     3514.00000 0.6879       3.120857       0.312067
  -8.597   0.1535644531  0.82477     2472.50000 0.8888       1.112493       0.111249
  10.647   0.1535644531  0.78152     2481.00000 0.8903       1.096989       0.109683
   9.316   0.1535644531  0.77644     2481.50000 0.8824       1.175648       0.117557
  31.808   0.1535644531  0.76069     2487.00000 0.8638       1.362301       0.136224
  32.306   0.1535644531  0.77736     2487.50000 0.8814       1.185748       0.118562
  30.843   0.1535644531  0.77257     3514.00000 0.6887       3.113274       0.311306
  19.217   0.1582031250  0.75530      840.50000 0.8974       1.025920       0.102583
  22.495   0.1582031250  0.75582      841.00000 0.8901       1.098616       0.109860
  27.274   0.1582031250  0.75330      841.50000 0.8800       1.199899       0.119990
 -10.559   0.1582031250  0.80714     2472.50000 0.8846       1.154184       0.115418
   8.484   0.1582031250  0.75479     2481.50000 0.8802       1.198509       0.119842
  32.414   0.1582031250  0.75013     2487.00000 0.8672       1.327886       0.132784
  32.882   0.1582031250  0.76679     2487.50000 0.8858       1.142509       0.114241
  29.833   0.1582031250  0.76117     3513.50000 0.6965       3.035411       0.303535
  31.086   0.1582031250  0.78810     3514.00000 0.6918       3.082323       0.308208
   2.336   0.1582031250  0.76508     3692.00000 0.7470       2.530122       0.252995
  -1.268   0.1582031250  0.76597     3692.50000 0.7330       2.670238       0.267014
  21.391   0.1628417969  0.77471      841.00000 0.8895       1.105447       0.110543
  26.442   0.1628417969  0.78061      841.50000 0.8787       1.213263       0.121326
  31.709   0.1628417969  0.78234      842.00000 0.8654       1.345843       0.134584
  36.324   0.1628417969  0.77971      842.50000 0.8512       1.488359       0.148832
 -12.570   0.1628417969  0.78159     2472.50000 0.8796       1.203774       0.120377
  33.606   0.1628417969  0.75353     2487.50000 0.8903       1.097390       0.109732
  30.024   0.1628417969  0.78267     3513.50000 0.7006       2.994056       0.299396
  31.363   0.1628417969  0.80157     3514.00000 0.6969       3.031301       0.303102
  20.298   0.1674804688  0.76843      841.00000 0.8891       1.109157       0.110913
  25.668   0.1674804688  0.77491      841.50000 0.8776       1.224154       0.122415
  31.190   0.1674804688  0.77729      842.00000 0.8633       1.367057       0.136705
  35.976   0.1674804688  0.77527      842.50000 0.8478       1.522084       0.152205
 -14.614   0.1674804688  0.75229     2472.50000 0.8739       1.261134       0.126113
  31.677   0.1674804688  0.78333     3514.00000 0.7036       2.964790       0.296446
  19.221   0.1721191406  0.78485      841.00000 0.8890       1.109789       0.110976
  24.954   0.1721191406  0.79870      841.50000 0.8768       1.232231       0.123223
  30.757   0.1721191406  0.80737      842.00000 0.8613       1.386728       0.138673
  35.720   0.1721191406  0.80936      842.50000 0.8443       1.556650       0.155661
  32.029   0.1721191406  0.76320     3514.00000 0.7113       2.887292       0.288692
  18.164   0.1767578125  0.79948      841.00000 0.8893       1.107448       0.110741
  24.302   0.1767578125  0.81916      841.50000 0.8763       1.237195       0.123719
  30.414   0.1767578125  0.83279      842.00000 0.8596       1.404194       0.140419
  35.556   0.1767578125  0.83794      842.50000 0.8409       1.591284       0.159125
  39.445   0.1767578125  0.83274      843.00000 0.8231       1.768850       0.176863
 -20.755   0.1767578125  0.76118     3677.00000 0.8722       1.278510       0.127847
  23.712   0.1813964844  0.81054      841.50000 0.8761       1.238848       0.123884
  30.159   0.1813964844  0.82393      842.00000 0.8581       1.418815       0.141881
  35.484   0.1813964844  0.82877      842.50000 0.8375       1.625103       0.162507
  39.447   0.1813964844  0.82327      843.00000 0.8175       1.825222       0.182500
  23.183   0.1860351562  0.82582      841.50000 0.8763       1.237124       0.123712
  29.991   0.1860351562  0.84194      842.00000 0.8570       1.430041       0.143004
  35.503   0.1860351562  0.84754      842.50000 0.8343       1.657151       0.165712
  39.525   0.1860351562  0.84115      843.00000 0.8116       1.883728       0.188350
   2.035   0.1860351562  0.87656      939.00000 0.8643       1.357358       0.135720
  22.710   0.1906738281  0.81484      841.50000 0.8768       1.232104       0.123210
  29.907   0.1906738281  0.83065      842.00000 0.8563       1.437475       0.143747
  35.613   0.1906738281  0.83542      842.50000 0.8314       1.686458       0.168643
  39.676   0.1906738281  0.82807      843.00000 0.8057       1.943371       0.194315
   0.550   0.1906738281  0.86152      938.50000 0.8727       1.273347       0.127330
   1.304   0.1906738281  0.86419      939.00000 0.8665       1.334825       0.133466
  29.903   0.1953125000  0.83807      842.00000 0.8559       1.440906       0.144091
  35.809   0.1953125000  0.84201      842.50000 0.8288       1.712118       0.171210
  -0.267   0.1953125000  0.87801      938.50000 0.8752       1.248180       0.124813
   0.614   0.1953125000  0.87103      939.00000 0.8687       1.313522       0.131335
  10.250   0.1953125000  0.75184     3511.00000 0.6949       3.051389       0.305137
  -1.054   0.1999511719  0.86649      938.50000 0.8776       1.223792       0.122373
  -0.034   0.1999511719  0.85900      939.00000 0.8707       1.293249       0.129306
  -1.810   0.2045898438  0.88338      938.50000 0.8800       1.199972       0.119991
  -3.687   0.2092285156  0.87535      938.00000 0.8879       1.121143       0.112114
  -2.533   0.2092285156  0.87329      938.50000 0.8824       1.176520       0.117645
  -4.524   0.2138671875  0.89834      938.00000 0.8904       1.096295       0.109629
  -3.221   0.2138671875  0.88963      938.50000 0.8847       1.153253       0.115317
  -5.334   0.2185058594  0.88935      938.00000 0.8928       1.071754       0.107175
  -3.872   0.2185058594  0.88109      938.50000 0.8870       1.130009       0.112992
  -6.112   0.2231445312  0.90942      938.00000 0.8953       1.047436       0.104743
  -4.482   0.2231445312  0.89562      938.50000 0.8893       1.106653       0.110656
  -6.856   0.2277832031  0.90167      938.00000 0.8977       1.023286       0.102328
  -5.049   0.2277832031  0.88819      938.50000 0.8917       1.083078       0.108297
  -7.561   0.2324218750  0.89234      938.00000 0.9001       0.999278       0.099926
  -5.568   0.2324218750  0.87989      938.50000 0.8941       1.059209       0.105910
  -8.225   0.2370605469  0.90942      938.00000 0.9025       0.975413       0.097540
  -6.036   0.2370605469  0.89287      938.50000 0.8965       1.035004       0.103488
  -8.845   0.2416992188  0.90011      938.00000 0.9048       0.951719       0.095170
  -6.449   0.2416992188  0.88411      938.50000 0.8990       1.010448       0.101032
  -9.417   0.2463378906  0.88715      938.00000 0.9072       0.928246       0.092822
  -6.802   0.2463378906  0.87336      938.50000 0.9015       0.985557       0.098542
  -9.940   0.2509765625  0.89446      938.00000 0.9095       0.905062       0.090504
  -7.091   0.2509765625  0.88666      938.50000 0.9040       0.960373       0.096023
 -10.411   0.2556152344  0.87428      938.00000 0.9118       0.882250       0.088222
 -10.831   0.2602539062  0.82774      938.00000 0.9140       0.859903       0.085987
   8.227   0.3483886719  0.81049     3747.50000 0.9147       0.852681       0.085264
   8.170   0.3530273438  0.81520     3747.50000 0.9134       0.865810       0.086577
   8.120   0.3576660156  0.81842     3747.50000 0.9121       0.879044       0.087901
   8.075   0.3623046875  0.81932     3747.50000 0.9108       0.892347       0.089231
   8.035   0.3669433594  0.81638     3747.50000 0.9094       0.905691       0.090566
   6.544   0.3715820312  0.76047     3747.00000 0.9025       0.975224       0.097521
   8.000   0.3715820312  0.80714     3747.50000 0.9081       0.919047       0.091902
   7.971   0.3762207031  0.78883     3747.50000 0.9068       0.932393       0.093237
   7.946   0.3808593750  0.75087     3747.50000 0.9054       0.945704       0.094568
-103.716   0.4829101562  0.80344     3855.50000 0.8001       1.998886       0.199888
-103.833   0.4875488281  0.80657     3855.50000 0.7928       2.071751       0.207175
-103.940   0.4921875000  0.80913     3855.50000 0.7854       2.145608       0.214561
-104.039   0.4968261719  0.81120     3855.50000 0.7780       2.220437       0.222043
-104.128   0.5014648438  0.81283     3855.50000 0.7704       2.296218       0.229622
2009   9 21 29 20 350
  22.824   0.1257324219  0.76412      220.00000 0.8390       1.609619       0.160960
  21.840   0.1257324219  0.76923      220.50000 0.8350       1.650206       0.165020
  19.294   0.1257324219  0.76662      221.00000 0.8325       1.675562       0.167549
  15.410   0.1257324219  0.76487      221.50000 0.8311       1.689434       0.168931
  21.160   0.1303710938  0.75417      219.00000 0.8492       1.507891       0.150768
  23.646   0.1303710938  0.79136      219.50000 0.8431       1.569013       0.156893
  24.392   0.1303710938  0.79327      220.00000 0.8379       1.620563       0.162055
  23.434   0.1303710938  0.78997      220.50000 0.8344       1.655809       0.165580
  20.894   0.1303710938  0.78752      221.00000 0.8326       1.673841       0.167378
  16.991   0.1303710938  0.78528      221.50000 0.8321       1.678917       0.167882
  12.105   0.1303710938  0.78336      222.00000 0.8322       1.677960       0.167789
  16.572   0.1303710938  0.79042      776.50000 0.8522       1.478325       0.147831
  17.090   0.1303710938  0.75560      777.00000 0.8722       1.278291       0.127828
  22.654   0.1350097656  0.80029      219.00000 0.8477       1.523308       0.152314
  25.233   0.1350097656  0.80063      219.50000 0.8415       1.584599       0.158454
  26.037   0.1350097656  0.80073      220.00000 0.8366       1.634113       0.163411
  25.111   0.1350097656  0.80040      220.50000 0.8335       1.664713       0.166470
  22.576   0.1350097656  0.79844      221.00000 0.8324       1.675630       0.167557
  18.645   0.1350097656  0.79528      221.50000 0.8328       1.671733       0.167165
  13.687   0.1350097656  0.79222      222.00000 0.8339       1.660882       0.166084
  17.539   0.1350097656  0.80283      777.00000 0.8791       1.209398       0.120939
  19.871   0.1350097656  0.76271      777.50000 0.8990       1.010065       0.101003
  19.761   0.1396484375  0.78627      218.50000 0.8525       1.475610       0.147542
  24.173   0.1396484375  0.78721      219.00000 0.8460       1.539811       0.153968
  26.852   0.1396484375  0.79468      219.50000 0.8397       1.602902       0.160286
  27.721   0.1396484375  0.80068      220.00000 0.8348       1.651520       0.165152
  26.835   0.1396484375  0.80258      220.50000 0.8322       1.678068       0.167805
  24.310   0.1396484375  0.80048      221.00000 0.8318       1.681926       0.168187
  20.346   0.1396484375  0.79629      221.50000 0.8331       1.668661       0.166859
  15.299   0.1396484375  0.79295      222.00000 0.8353       1.647262       0.164723
  17.811   0.1396484375  0.84343      777.00000 0.8863       1.137290       0.113729
  20.045   0.1396484375  0.80483      777.50000 0.9057       0.942775       0.094275
  24.903   0.1396484375  0.76409      778.00000 0.9214       0.785995       0.078596
  -0.267   0.1396484375  0.76860     1000.50000 0.8517       1.482636       0.148263
  -1.419   0.1396484375  0.76652     1001.00000 0.8558       1.442467       0.144245
  15.083   0.1442871094  0.75329      218.00000 0.8567       1.433555       0.143343
  21.115   0.1442871094  0.75956      218.50000 0.8511       1.488863       0.148872
  25.687   0.1442871094  0.77227      219.00000 0.8442       1.558494       0.155840
  28.468   0.1442871094  0.78478      219.50000 0.8375       1.624973       0.162495
  29.407   0.1442871094  0.79353      220.00000 0.8326       1.673739       0.167374
  28.568   0.1442871094  0.79638      220.50000 0.8303       1.696685       0.169666
  26.062   0.1442871094  0.79398      221.00000 0.8307       1.693364       0.169330
  22.069   0.1442871094  0.78988      221.50000 0.8330       1.670148       0.167008
  16.925   0.1442871094  0.78828      222.00000 0.8363       1.637336       0.163732
  20.141   0.1442871094  0.83884      777.50000 0.9125       0.875152       0.087514
  25.072   0.1442871094  0.79804      778.00000 0.9278       0.721825       0.072180
  32.282   0.1442871094  0.75616      778.50000 0.9361       0.638957       0.063894
  -0.806   0.1442871094  0.79070     1000.50000 0.8481       1.518880       0.151888
  -1.922   0.1442871094  0.79234     1001.00000 0.8527       1.473050       0.147303
  27.166   0.1489257812  0.75905      219.00000 0.8420       1.580254       0.158019
  30.050   0.1489257812  0.77138      219.50000 0.8348       1.651629       0.165162
  31.062   0.1489257812  0.77921      220.00000 0.8299       1.701444       0.170144
  30.279   0.1489257812  0.78133      220.50000 0.8279       1.721044       0.172100
  27.803   0.1489257812  0.77959      221.00000 0.8290       1.710216       0.171013
  23.790   0.1489257812  0.77839      221.50000 0.8324       1.676276       0.167621
  18.548   0.1489257812  0.78102      222.00000 0.8369       1.631042       0.163103
  20.193   0.1489257812  0.83641      777.50000 0.9191       0.809224       0.080922
  25.304   0.1489257812  0.82403      778.00000 0.9340       0.659726       0.065971
  32.947   0.1489257812  0.78307      778.50000 0.9422       0.578096       0.057809
  -1.306   0.1489257812  0.80847     1000.50000 0.8438       1.561591       0.156159
  -2.402   0.1489257812  0.81444     1001.00000 0.8492       1.508027       0.150800
  32.271   0.1535644531  0.76427      139.50000 0.8401       1.598846       0.159884
  28.879   0.1535644531  0.76298      140.00000 0.8512       1.488468       0.148844
  31.573   0.1535644531  0.75521      219.50000 0.8316       1.683505       0.168350
  32.661   0.1535644531  0.75846      220.00000 0.8265       1.735067       0.173505
  31.943   0.1535644531  0.75837      220.50000 0.8249       1.751314       0.175124
  29.508   0.1535644531  0.75949      221.00000 0.8268       1.732392       0.173229
  25.486   0.1535644531  0.76440      221.50000 0.8313       1.686772       0.168670
  20.148   0.1535644531  0.77257      222.00000 0.8372       1.628026       0.162802
  14.043   0.1535644531  0.78203      222.50000 0.8431       1.569519       0.156947
  20.221   0.1535644531  0.80417      777.50000 0.9253       0.746862       0.074686
  25.616   0.1535644531  0.80384      778.00000 0.9399       0.601066       0.060106
  33.877   0.1535644531  0.79522      778.50000 0.9479       0.520827       0.052082
  -1.772   0.1535644531  0.82160     1000.50000 0.8388       1.612099       0.161210
  -2.862   0.1535644531  0.83113     1001.00000 0.8452       1.547799       0.154777
  33.311   0.1582031250  0.78248      139.50000 0.8428       1.571542       0.157154
  29.939   0.1582031250  0.76935      140.00000 0.8545       1.455129       0.145512
  24.999   0.1582031250  0.75383      140.50000 0.8685       1.315188       0.131518
  21.710   0.1582031250  0.76208      222.00000 0.8372       1.627661       0.162765
  15.396   0.1582031250  0.77340      222.50000 0.8445       1.554951       0.155488
  -2.205   0.1582031250  0.83030     1000.50000 0.8328       1.671554       0.167155
  -3.304   0.1582031250  0.84142     1001.00000 0.8408       1.592358       0.159234
  34.268   0.1628417969  0.75683      139.50000 0.8450       1.549654       0.154965
  16.690   0.1628417969  0.76081      222.50000 0.8459       1.541586       0.154150
  -2.603   0.1628417969  0.83490     1000.50000 0.8259       1.740944       0.174094
  -3.730   0.1628417969  0.84547     1001.00000 0.8359       1.641258       0.164124
  -2.964   0.1674804688  0.82767     1000.50000 0.8179       1.821087       0.182109
  -3.286   0.1721191406  0.82756     1000.50000 0.8087       1.912561       0.191256
  -3.565   0.1767578125  0.82334     1000.50000 0.7984       2.015585       0.201558
  -3.798   0.1813964844  0.81333     1000.50000 0.7870       2.129830       0.212981
  41.912   0.1813964844  0.80301     2329.00000 0.7488       2.511940       0.251177
  -3.983   0.1860351562  0.80539     1000.50000 0.7746       2.254136       0.225410
  42.498   0.1860351562  0.85278     2329.00000 0.7540       2.460589       0.246046
  43.042   0.1906738281  0.85988     2329.00000 0.7586       2.414297       0.241421
-129.528   0.2741699219  0.77543     2322.00000 0.7533       2.466878       0.246654
-129.401   0.2788085938  0.78273     2322.00000 0.7498       2.502140       0.250177
  44.864   0.2834472656  0.76396     2328.50000 0.7348       2.651831       0.265170
  44.798   0.2880859375  0.76539     2328.50000 0.7290       2.710417       0.271028
  44.728   0.2927246094  0.76524     2328.50000 0.7230       2.770631       0.277049
  44.657   0.2973632812  0.76469     2328.50000 0.7168       2.832313       0.283217
  53.500   0.3251953125  0.75621     1931.50000 0.8479       1.520650       0.152064
  53.451   0.3298339844  0.76486     1931.50000 0.8439       1.560962       0.156095
  53.408   0.3344726562  0.77275     1931.50000 0.8399       1.601484       0.160147
  53.371   0.3391113281  0.78005     1931.50000 0.8358       1.642175       0.164216
-126.647   0.3391113281  0.76556     2087.00000 0.6122       3.878446       0.387837
  53.339   0.3437500000  0.78686     1931.50000 0.8317       1.682994       0.168298
-126.602   0.3437500000  0.78598     2087.00000 0.6039       3.960696       0.396062
  53.313   0.3483886719  0.79471     1931.50000 0.8276       1.723910       0.172389
-126.562   0.3483886719  0.80539     2087.00000 0.5954       4.046033       0.404595
  53.292   0.3530273438  0.80019     1931.50000 0.8235       1.764895       0.176487
-126.527   0.3530273438  0.81596     2087.00000 0.5866       4.134426       0.413434
-126.495   0.3576660156  0.82156     2087.00000 0.5774       4.225840       0.422575
-126.469   0.3623046875  0.82376     2087.00000 0.5680       4.320249       0.432016
-126.446   0.3669433594  0.82371     2087.00000 0.5582       4.417626       0.441754
-126.426   0.3715820312  0.82218     2087.00000 0.5482       4.517946       0.451785
-126.411   0.3762207031  0.81969     2087.00000 0.5379       4.621178       0.462108
-126.399   0.3808593750  0.81599     2087.00000 0.5273       4.727301       0.472721
-126.389   0.3854980469  0.81255     2087.00000 0.5164       4.836293       0.483620
-126.383   0.3901367188  0.80893     2087.00000 0.5052       4.948127       0.494803
  44.901   0.3901367188  0.78512     2241.00000 0.1479       8.522608       0.852140
-126.380   0.3947753906  0.80532     2087.00000 0.4937       5.062779       0.506268
  45.178   0.4226074219  0.75536     2241.00000 0.0326       9.675814       0.967421
  45.208   0.4272460938  0.77803     2241.00000 0.0340      10.354351       1.035242
  45.237   0.4318847656  0.79638     2241.00000 0.0456      10.479163       1.047773
-126.255   0.4365234375  0.75426     3211.50000 0.7580       2.419688       0.241965
-126.442   0.4411621094  0.75851     3211.50000 0.7514       2.486512       0.248647
-126.627   0.4458007812  0.76269     3211.50000 0.7446       2.554399       0.255436
-126.810   0.4504394531  0.76679     3211.50000 0.7377       2.623348       0.262331
  38.409   0.4504394531  0.79562     3356.00000 0.3612       6.388263       0.638811
-126.977   0.4550781250  0.75397     2857.00000 0.7546       2.454374       0.245423
-126.991   0.4550781250  0.77082     3211.50000 0.7307       2.693360       0.269332
  38.389   0.4550781250  0.80379     3356.00000 0.3552       6.447859       0.644770
-126.901   0.4597167969  0.75867     2857.00000 0.7496       2.504437       0.250430
-127.169   0.4597167969  0.77476     3211.50000 0.7236       2.764437       0.276439
  38.370   0.4597167969  0.81047     3356.00000 0.3491       6.508829       0.650866
-126.821   0.4643554688  0.79897     2857.00000 0.7445       2.555334       0.255519
-127.345   0.4643554688  0.76351     3211.50000 0.7163       2.836578       0.283653
  38.352   0.4643554688  0.91767     3356.00000 0.3429       6.571252       0.657107
-126.737   0.4689941406  0.80131     2857.00000 0.7393       2.607068       0.260692
-127.518   0.4689941406  0.76756     3211.50000 0.7090       2.909785       0.290973
  38.336   0.4689941406  0.92053     3356.00000 0.3365       6.635194       0.663500
-126.652   0.4736328125  0.80345     2857.00000 0.7341       2.659640       0.265949
-127.688   0.4736328125  0.77153     3211.50000 0.7016       2.984056       0.298400
  38.322   0.4736328125  0.92314     3356.00000 0.3300       6.700691       0.670048
-126.564   0.4782714844  0.80541     2857.00000 0.7287       2.713051       0.271290
-127.856   0.4782714844  0.77541     3211.50000 0.6941       3.059389       0.305933
  38.308   0.4782714844  0.92556     3356.00000 0.3232       6.767769       0.676755
  84.605   0.4782714844  0.75075     3951.00000 0.5081       4.918916       0.491891
-126.473   0.4829101562  0.80718     2857.00000 0.7233       2.767299       0.276714
-128.020   0.4829101562  0.77921     3211.50000 0.6864       3.135786       0.313573
  38.296   0.4829101562  0.92784     3356.00000 0.3164       6.836423       0.683619
  84.379   0.4829101562  0.75613     3951.00000 0.4974       5.025538       0.502554
-126.382   0.4875488281  0.80880     2857.00000 0.7178       2.822384       0.282222
-128.182   0.4875488281  0.78292     3211.50000 0.6787       3.213242       0.321318
  38.285   0.4875488281  0.93000     3356.00000 0.3094       6.906638       0.690639
  84.156   0.4875488281  0.76141     3951.00000 0.4865       5.134698       0.513470
  -4.934   0.4921875000  0.86064      752.50000 0.6637       3.362752       0.336275
-126.289   0.4921875000  0.81029     2857.00000 0.7122       2.878301       0.287813
-128.340   0.4921875000  0.78655     3211.50000 0.6708       3.291756       0.329169
  38.275   0.4921875000  0.93204     3356.00000 0.3022       6.978374       0.697812
  83.936   0.4921875000  0.76658     3951.00000 0.4754       5.246389       0.524639
  -5.111   0.4968261719  0.85908      752.50000 0.6571       3.428811       0.342881
  57.633   0.4968261719  0.91929     1935.50000 0.6355       3.646013       0.364548
-126.195   0.4968261719  0.81165     2857.00000 0.7065       2.935051       0.293488
-128.496   0.4968261719  0.79009     3211.50000 0.6629       3.371326       0.337125
  83.719   0.4968261719  0.77165     3951.00000 0.4639       5.360601       0.536060
  -5.288   0.5014648438  0.85719      752.50000 0.6504       3.496008       0.349600
  57.611   0.5014648438  0.91940     1935.50000 0.6273       3.727182       0.372664
-126.100   0.5014648438  0.81290     2857.00000 0.7008       2.992626       0.299245
-128.648   0.5014648438  0.79355     3211.50000 0.6548       3.451951       0.345187
  83.504   0.5014648438  0.77662     3951.00000 0.4523       5.477333       0.547733
2009   9  1  6 50 350
  -6.342   0.1025390625  0.75178     1568.00000 0.9050       0.950518       0.095038
 -15.302   0.1025390625  0.75710     3380.50000 0.8384       1.615775       0.161557
 -13.448   0.1025390625  0.75386     3381.00000 0.8402       1.597803       0.159780
  22.085   0.1025390625  0.75382     3506.00000 0.8088       1.911865       0.191185
 -10.936   0.1071777344  0.79348     1568.00000 0.8951       1.049386       0.104925
  -0.768   0.1071777344  0.79169     1571.00000 0.7961       2.038609       0.203861
   1.432   0.1071777344  0.77049     1571.50000 0.7860       2.139601       0.213954
 -12.619   0.1071777344  0.77060     3380.50000 0.8463       1.536766       0.153655
 -10.939   0.1071777344  0.77341     3381.00000 0.8472       1.528370       0.152836
  18.469   0.1071777344  0.79611     3506.00000 0.8106       1.893839       0.189384
  -9.765   0.1118164062  0.76444     1089.00000 0.8724       1.276377       0.127637
 -14.743   0.1118164062  0.79698     1568.50000 0.8752       1.248434       0.124827
  -4.309   0.1118164062  0.79202     1571.00000 0.8007       1.992634       0.199262
  -2.055   0.1118164062  0.78311     1571.50000 0.7923       2.076709       0.207655
  -8.673   0.1118164062  0.75487     3381.00000 0.8521       1.478539       0.147852
  -6.815   0.1118164062  0.75578     3500.50000 0.8154       1.846296       0.184629
  -7.911   0.1118164062  0.75528     3501.00000 0.8158       1.842244       0.184210
 -34.557   0.1118164062  0.78589     3532.00000 0.9004       0.995981       0.099596
 -29.139   0.1118164062  0.77266     3532.50000 0.8945       1.054824       0.105476
 -23.354   0.1118164062  0.75957     3533.00000 0.8859       1.140574       0.114052
  -3.214   0.1164550781  0.76288     1088.00000 0.8918       1.082150       0.108213
  -6.979   0.1164550781  0.78636     1088.50000 0.8832       1.168332       0.116833
 -18.464   0.1164550781  0.77621     1568.50000 0.8682       1.317775       0.131761
 -10.130   0.1164550781  0.76480     1570.50000 0.8145       1.854949       0.185495
  -7.655   0.1164550781  0.76026     1571.00000 0.8037       1.962595       0.196255
  -5.721   0.1164550781  0.75084     3500.50000 0.8044       1.955593       0.195558
  -6.542   0.1164550781  0.75000     3501.00000 0.8055       1.945464       0.194542
 -36.802   0.1164550781  0.80512     3532.00000 0.8982       1.018195       0.101818
 -32.036   0.1164550781  0.79387     3532.50000 0.8931       1.068918       0.106887
 -26.709   0.1164550781  0.78124     3533.00000 0.8857       1.142673       0.114263
 -21.922   0.1164550781  0.76807     3533.50000 0.8770       1.230468       0.123046
 -18.362   0.1164550781  0.75518     3534.00000 0.8683       1.316707       0.131668
  20.443   0.1210937500  0.76667     1626.50000 0.8682       1.318014       0.131801
 -34.716   0.1210937500  0.81510     3532.50000 0.8920       1.080449       0.108039
 -29.714   0.1210937500  0.80463     3533.00000 0.8855       1.145345       0.114529
 -25.062   0.1210937500  0.79105     3533.50000 0.8777       1.223279       0.122327
 -21.492   0.1210937500  0.77558     3534.00000 0.8699       1.300892       0.130087
  18.479   0.1257324219  0.79319     1626.50000 0.8671       1.328780       0.132875
  -4.934   0.1257324219  0.76236     1640.50000 0.8454       1.546428       0.154631
 -37.260   0.1257324219  0.81337     3532.50000 0.8909       1.091194       0.109113
 -32.493   0.1257324219  0.80677     3533.00000 0.8851       1.149037       0.114897
 -27.912   0.1257324219  0.79523     3533.50000 0.8781       1.219138       0.121912
 -24.290   0.1257324219  0.78018     3534.00000 0.8710       1.289920       0.128991
  16.306   0.1303710938  0.81821     1627.00000 0.8674       1.326534       0.132649
  -4.951   0.1303710938  0.76785     1640.50000 0.8510       1.490463       0.149040
 -22.436   0.1303710938  0.76154     3198.00000 0.9051       0.949129       0.094907
 -35.123   0.1303710938  0.79975     3533.00000 0.8846       1.154082       0.115400
 -30.563   0.1303710938  0.79243     3533.50000 0.8782       1.217550       0.121753
 -26.849   0.1303710938  0.77943     3534.00000 0.8717       1.282562       0.128255
  13.743   0.1350097656  0.81801     1627.00000 0.8693       1.307048       0.130705
  -4.410   0.1350097656  0.76296     1640.00000 0.8630       1.370155       0.137010
  -4.995   0.1350097656  0.75690     1640.50000 0.8562       1.438320       0.143829
 -24.818   0.1350097656  0.77909     3197.50000 0.9095       0.905027       0.090503
 -25.543   0.1350097656  0.79281     3198.00000 0.9026       0.974286       0.097424
 -25.755   0.1350097656  0.78752     3521.50000 0.8592       1.408406       0.140822
 -26.572   0.1350097656  0.79781     3522.00000 0.8662       1.338528       0.133836
 -27.139   0.1350097656  0.80377     3522.50000 0.8721       1.278855       0.127867
 -37.653   0.1350097656  0.78330     3533.00000 0.8839       1.160669       0.116056
 -33.079   0.1350097656  0.78165     3533.50000 0.8782       1.218271       0.121823
 -29.239   0.1350097656  0.77325     3534.00000 0.8722       1.278178       0.127818
 -21.417   0.1396484375  0.75749      477.00000 0.8473       1.527242       0.152716
  10.780   0.1396484375  0.80166     1627.00000 0.8725       1.274766       0.127475
 -27.558   0.1396484375  0.79945     3197.50000 0.9075       0.924974       0.092497
 -28.372   0.1396484375  0.81428     3198.00000 0.9007       0.993007       0.099298
 -29.210   0.1396484375  0.82532     3198.50000 0.8928       1.071872       0.107173
 -25.530   0.1396484375  0.76844     3521.00000 0.8533       1.467629       0.146742
 -26.250   0.1396484375  0.78617     3521.50000 0.8611       1.389078       0.138894
 -27.045   0.1396484375  0.80086     3522.00000 0.8685       1.315048       0.131492
 -27.586   0.1396484375  0.81025     3522.50000 0.8749       1.251281       0.125114
 -35.498   0.1396484375  0.76163     3533.50000 0.8779       1.221206       0.122115
 -31.508   0.1396484375  0.75985     3534.00000 0.8723       1.276508       0.127651
 -22.311   0.1442871094  0.75188      477.00000 0.8393       1.606985       0.160693
   7.337   0.1442871094  0.76388     1627.00000 0.8769       1.230964       0.123089
   5.449   0.1442871094  0.76404     1627.50000 0.8775       1.225267       0.122515
 -13.798   0.1442871094  0.75217     2347.50000 0.9035       0.964797       0.096476
 -12.419   0.1442871094  0.75258     2348.00000 0.8987       1.013427       0.101341
