 -30.987   0.0839843750  0.97232     3020.00000 0.8669       1.330734       0.133067
 -30.698   0.0839843750  0.97451     3020.50000 0.8663       1.336713       0.133665
 -30.379   0.0839843750  0.97672     3021.00000 0.8661       1.339527       0.133945
 -30.032   0.0839843750  0.97884     3021.50000 0.8661       1.339163       0.133908
 -29.658   0.0839843750  0.98079     3022.00000 0.8664       1.335687       0.133559
 -29.259   0.0839843750  0.98250     3022.50000 0.8671       1.329227       0.132911
 -28.839   0.0839843750  0.98390     3023.00000 0.8680       1.319971       0.131983
 -28.407   0.0839843750  0.98499     3023.50000 0.8692       1.308161       0.130799
 -35.172   0.0839843750  0.98267     3037.00000 0.8786       1.213642       0.121364
 -34.960   0.0839843750  0.98177     3037.50000 0.8767       1.233403       0.123340
 -34.666   0.0839843750  0.98081     3038.00000 0.8748       1.252439       0.125244
 -34.307   0.0839843750  0.97981     3038.50000 0.8730       1.270387       0.127038
 -33.899   0.0839843750  0.97878     3039.00000 0.8713       1.286911       0.128689
 -33.460   0.0839843750  0.97774     3039.50000 0.8698       1.301706       0.130166
 -33.007   0.0839843750  0.97669     3040.00000 0.8686       1.314505       0.131445
 -32.554   0.0839843750  0.97565     3040.50000 0.8675       1.325074       0.132500
 -32.118   0.0839843750  0.97461     3041.00000 0.8667       1.333223       0.133313
 -31.711   0.0839843750  0.97357     3041.50000 0.8661       1.338807       0.133871
 -31.345   0.0839843750  0.97253     3042.00000 0.8658       1.341740       0.134163
 -31.032   0.0839843750  0.97147     3042.50000 0.8658       1.341993       0.134189
 -30.778   0.0839843750  0.97038     3043.00000 0.8660       1.339610       0.133951
 -30.589   0.0839843750  0.96925     3043.50000 0.8665       1.334710       0.133462
 -30.470   0.0839843750  0.96806     3044.00000 0.8673       1.327488       0.132740
 -30.418   0.0839843750  0.96679     3044.50000 0.8682       1.318216       0.131814
 -30.430   0.0839843750  0.96544     3045.00000 0.8693       1.307235       0.130717
 -30.499   0.0839843750  0.96398     3045.50000 0.8705       1.294946       0.129490
 -30.613   0.0839843750  0.96242     3046.00000 0.8718       1.281794       0.128175
 -30.757   0.0839843750  0.96075     3046.50000 0.8732       1.268252       0.126822
 -30.914   0.0839843750  0.95897     3047.00000 0.8745       1.254801       0.125478
 -31.065   0.0839843750  0.95708     3047.50000 0.8758       1.241919       0.124190
 -31.189   0.0839843750  0.95511     3048.00000 0.8770       1.230062       0.123004
 -31.267   0.0839843750  0.95306     3048.50000 0.8780       1.219653       0.121964
 -31.282   0.0839843750  0.95096     3049.00000 0.8789       1.211080       0.121106
 -31.221   0.0839843750  0.94881     3049.50000 0.8795       1.204676       0.120466
 -31.074   0.0839843750  0.94666     3050.00000 0.8799       1.200722       0.120070
 -30.838   0.0839843750  0.94452     3050.50000 0.8801       1.199430       0.119941
 -30.515   0.0839843750  0.94242     3051.00000 0.8799       1.200936       0.120091
 -30.111   0.0839843750  0.94040     3051.50000 0.8795       1.205284       0.120526
 -29.638   0.0839843750  0.93847     3052.00000 0.8788       1.212421       0.121239
 -29.111   0.0839843750  0.93667     3052.50000 0.8778       1.222184       0.122215
 -28.544   0.0839843750  0.93503     3053.00000 0.8766       1.234305       0.123427
 -27.955   0.0839843750  0.93355     3053.50000 0.8752       1.248406       0.124837
 -27.360   0.0839843750  0.93227     3054.00000 0.8736       1.264019       0.126399
 -26.771   0.0839843750  0.93118     3054.50000 0.8719       1.280597       0.128057
 -26.202   0.0839843750  0.93030     3055.00000 0.8702       1.297531       0.129750
 -25.660   0.0839843750  0.92963     3055.50000 0.8686       1.314183       0.131416
 -25.153   0.0839843750  0.92916     3056.00000 0.8670       1.329903       0.132989
 -24.682   0.0839843750  0.92890     3056.50000 0.8656       1.344059       0.134405
 -24.250   0.0839843750  0.92885     3057.00000 0.8644       1.356063       0.135606
 -23.854   0.0839843750  0.92900     3057.50000 0.8635       1.365395       0.136539
 -23.493   0.0839843750  0.92934     3058.00000 0.8628       1.371619       0.137162
 -23.162   0.0839843750  0.92986     3058.50000 0.8626       1.374411       0.137441
 -22.856   0.0839843750  0.93056     3059.00000 0.8626       1.373566       0.137356
 -22.570   0.0839843750  0.93139     3059.50000 0.8631       1.369015       0.136900
 -22.300   0.0839843750  0.93235     3060.00000 0.8639       1.360829       0.136081
 -19.788   0.0839843750  0.94495     3065.50000 0.8818       1.181909       0.118189
 -19.554   0.0839843750  0.94603     3066.00000 0.8822       1.178161       0.117815
 -19.299   0.0839843750  0.94711     3066.50000 0.8820       1.179733       0.117972
 -19.016   0.0839843750  0.94819     3067.00000 0.8813       1.186979       0.118697
 -18.701   0.0839843750  0.94928     3067.50000 0.8800       1.200076       0.120007
 -18.354   0.0839843750  0.95038     3068.00000 0.8781       1.219000       0.121900
 -17.974   0.0839843750  0.95151     3068.50000 0.8756       1.243533       0.124353
 -17.566   0.0839843750  0.95267     3069.00000 0.8727       1.273257       0.127326
 -17.136   0.0839843750  0.95386     3069.50000 0.8692       1.307561       0.130756
 -16.690   0.0839843750  0.95509     3070.00000 0.8654       1.345649       0.134565
 -16.237   0.0839843750  0.95636     3070.50000 0.8613       1.386558       0.138655
 -15.785   0.0839843750  0.95768     3071.00000 0.8571       1.429164       0.142916
 -15.343   0.0839843750  0.95905     3071.50000 0.8528       1.472220       0.147221
 -14.920   0.0839843750  0.96048     3072.00000 0.8486       1.514376       0.151435
 -14.523   0.0839843750  0.96198     3072.50000 0.8446       1.554227       0.155419
 -14.162   0.0839843750  0.96352     3073.00000 0.8410       1.590355       0.159030
 -13.843   0.0839843750  0.96513     3073.50000 0.8379       1.621394       0.162132
 -13.575   0.0839843750  0.96677     3074.00000 0.8354       1.646087       0.164599
 -13.366   0.0839843750  0.96843     3074.50000 0.8337       1.663361       0.166324
 -13.223   0.0839843750  0.97010     3075.00000 0.8328       1.672385       0.167223
 -13.154   0.0839843750  0.97175     3075.50000 0.8328       1.672633       0.167245
 -18.343   0.0839843750  0.98769     3082.00000 0.8747       1.253239       0.125306
 -18.594   0.0839843750  0.98835     3082.50000 0.8757       1.243421       0.124327
 -18.682   0.0839843750  0.98884     3083.00000 0.8757       1.243098       0.124297
 -24.349   0.0839843750  0.99175     3153.50000 0.8673       1.327485       0.132748
 -24.200   0.0839843750  0.99096     3154.00000 0.8661       1.339447       0.133945
 -24.055   0.0839843750  0.98986     3154.50000 0.8645       1.354629       0.135462
 -23.919   0.0839843750  0.98842     3155.00000 0.8628       1.372448       0.137243
 -23.795   0.0839843750  0.98663     3155.50000 0.8608       1.392222       0.139218
 -23.685   0.0839843750  0.98448     3156.00000 0.8587       1.413181       0.141310
 -23.590   0.0839843750  0.98199     3156.50000 0.8566       1.434491       0.143435
 -23.508   0.0839843750  0.97921     3157.00000 0.8545       1.455279       0.145506
 -13.882   0.0839843750  0.88513     3221.50000 0.8721       1.279332       0.127932
 -13.345   0.0839843750  0.88562     3222.00000 0.8725       1.275024       0.127502
 -12.905   0.0839843750  0.88640     3222.50000 0.8726       1.274423       0.127442
 -12.594   0.0839843750  0.88731     3223.00000 0.8723       1.277117       0.127712
 -12.439   0.0839843750  0.88814     3223.50000 0.8717       1.282585       0.128258
 -12.458   0.0839843750  0.88871     3224.00000 0.8710       1.290243       0.129023
 -12.661   0.0839843750  0.88887     3224.50000 0.8701       1.299492       0.129946
 -34.351   0.0839843750  0.95884     3576.50000 0.8617       1.382508       0.138250
 -34.871   0.0839843750  0.95877     3577.00000 0.8635       1.364611       0.136461
 -35.110   0.0839843750  0.95861     3577.50000 0.8657       1.343187       0.134318
 -35.069   0.0839843750  0.95838     3578.00000 0.8681       1.319028       0.131899
 -34.750   0.0839843750  0.95811     3578.50000 0.8707       1.293144       0.129306
 -34.165   0.0839843750  0.95779     3579.00000 0.8733       1.266718       0.126658
 -47.894   0.0839843750  0.92714     3703.00000 0.9024       0.976139       0.097612
 -49.625   0.0839843750  0.92076     3703.50000 0.8996       1.004502       0.100447
 -51.237   0.0839843750  0.91372     3704.00000 0.8960       1.040120       0.104008
 -52.679   0.0839843750  0.90601     3704.50000 0.8918       1.082109       0.108206
 -53.917   0.0839843750  0.89763     3705.00000 0.8871       1.129372       0.112931
 -54.933   0.0839843750  0.88859     3705.50000 0.8819       1.180652       0.118057
 -55.723   0.0839843750  0.87892     3706.00000 0.8766       1.234579       0.123448
 -56.295   0.0839843750  0.86866     3706.50000 0.8710       1.289718       0.128958
 -60.034   0.0839843750  0.86447     3774.00000 0.8020       1.980206       0.197999
 -61.810   0.0839843750  0.86216     3774.50000 0.8034       1.966221       0.196611
 -63.508   0.0839843750  0.85604     3775.00000 0.8061       1.939086       0.193904
 -65.096   0.0839843750  0.84643     3775.50000 0.8101       1.899179       0.189917
 -66.538   0.0839843750  0.83391     3776.00000 0.8153       1.847385       0.184738
 -67.793   0.0839843750  0.81914     3776.50000 0.8215       1.785022       0.178500
 -68.815   0.0839843750  0.80275     3777.00000 0.8286       1.713731       0.171367
 -69.555   0.0839843750  0.78526     3777.50000 0.8365       1.635393       0.163529
 -36.252   0.0886230469  0.87717     2718.00000 0.8525       1.475601       0.147542
 -35.404   0.0886230469  0.87970     2718.50000 0.8520       1.480202       0.148008
 -34.667   0.0886230469  0.88268     2719.00000 0.8519       1.480718       0.148064
 -34.051   0.0886230469  0.88609     2719.50000 0.8523       1.476870       0.147683
 -33.569   0.0886230469  0.88989     2720.00000 0.8531       1.468574       0.146856
 -33.233   0.0886230469  0.89403     2720.50000 0.8544       1.455953       0.145595
 -33.053   0.0886230469  0.89846     2721.00000 0.8561       1.439346       0.143934
 -33.042   0.0886230469  0.90311     2721.50000 0.8581       1.419293       0.141928
 -33.205   0.0886230469  0.90792     2722.00000 0.8604       1.396517       0.139649
 -33.548   0.0886230469  0.91281     2722.50000 0.8628       1.371895       0.137184
 -44.579   0.0886230469  0.96383     2753.50000 0.8734       1.265901       0.126588
 -44.312   0.0886230469  0.96212     2754.00000 0.8751       1.249414       0.124941
 -43.989   0.0886230469  0.96015     2754.50000 0.8766       1.233778       0.123378
 -43.620   0.0886230469  0.95801     2755.00000 0.8780       1.219535       0.121954
 -43.215   0.0886230469  0.95579     2755.50000 0.8793       1.207113       0.120711
 -42.786   0.0886230469  0.95358     2756.00000 0.8803       1.196804       0.119680
 -42.343   0.0886230469  0.95147     2756.50000 0.8811       1.188760       0.118875
 -41.897   0.0886230469  0.94954     2757.00000 0.8817       1.183003       0.118298
 -41.457   0.0886230469  0.94785     2757.50000 0.8821       1.179435       0.117941
 -41.032   0.0886230469  0.94644     2758.00000 0.8822       1.177863       0.117783
 -40.629   0.0886230469  0.94535     2758.50000 0.8822       1.178019       0.117798
 -40.252   0.0886230469  0.94459     2759.00000 0.8820       1.179593       0.117955
 -39.901   0.0886230469  0.94417     2759.50000 0.8818       1.182256       0.118221
 -39.574   0.0886230469  0.94408     2760.00000 0.8814       1.185688       0.118565
 -39.266   0.0886230469  0.94430     2760.50000 0.8810       1.189598       0.118957
 -38.967   0.0886230469  0.94482     2761.00000 0.8806       1.193745       0.119372
 -38.665   0.0886230469  0.94561     2761.50000 0.8802       1.197944       0.119793
 -38.349   0.0886230469  0.94663     2762.00000 0.8798       1.202066       0.120206
 -38.005   0.0886230469  0.94785     2762.50000 0.8794       1.206030       0.120603
 -37.622   0.0886230469  0.94922     2763.00000 0.8790       1.209787       0.120979
 -37.195   0.0886230469  0.95071     2763.50000 0.8787       1.213292       0.121328
 -36.720   0.0886230469  0.95227     2764.00000 0.8784       1.216476       0.121645
 -36.203   0.0886230469  0.95386     2764.50000 0.8781       1.219230       0.121919
 -35.656   0.0886230469  0.95545     2765.00000 0.8779       1.221379       0.122131
 -35.094   0.0886230469  0.95702     2765.50000 0.8777       1.222684       0.122258
 -34.539   0.0886230469  0.95853     2766.00000 0.8777       1.222849       0.122272
 -37.000   0.0886230469  0.96678     2772.50000 0.8916       1.084442       0.108434
 -38.210   0.0886230469  0.96682     2773.00000 0.8924       1.075695       0.107561
 -39.518   0.0886230469  0.96686     2773.50000 0.8929       1.070596       0.107052
 -40.892   0.0886230469  0.96689     2774.00000 0.8930       1.069740       0.106968
 -42.294   0.0886230469  0.96694     2774.50000 0.8926       1.073582       0.107352
 -43.683   0.0886230469  0.96698     2775.00000 0.8918       1.082406       0.108235
 -45.020   0.0886230469  0.96703     2775.50000 0.8904       1.096296       0.109625
 -46.266   0.0886230469  0.96708     2776.00000 0.8885       1.115122       0.111507
 -47.387   0.0886230469  0.96713     2776.50000 0.8862       1.138524       0.113847
 -48.356   0.0886230469  0.96718     2777.00000 0.8834       1.165912       0.116585
 -49.156   0.0886230469  0.96721     2777.50000 0.8804       1.196489       0.119642
 -49.774   0.0886230469  0.96723     2778.00000 0.8771       1.229278       0.122920
 -50.210   0.0886230469  0.96722     2778.50000 0.8737       1.263182       0.126308
 -50.468   0.0886230469  0.96716     2779.00000 0.8703       1.297051       0.129692
 -50.557   0.0886230469  0.96703     2779.50000 0.8670       1.329772       0.132961
 -50.494   0.0886230469  0.96681     2780.00000 0.8640       1.360347       0.136015
 -51.702   0.0886230469  0.96912     2816.00000 0.8712       1.288487       0.128829
 -38.131   0.0886230469  0.96894     2828.50000 0.9029       0.970747       0.097062
 -38.258   0.0886230469  0.96909     2829.00000 0.9038       0.961989       0.096188
 -38.407   0.0886230469  0.96921     2829.50000 0.9043       0.957043       0.095695
 -38.560   0.0886230469  0.96931     2830.00000 0.9044       0.955718       0.095563
 -38.700   0.0886230469  0.96935     2830.50000 0.9042       0.957666       0.095759
 -38.812   0.0886230469  0.96932     2831.00000 0.9038       0.962408       0.096234
 -38.887   0.0886230469  0.96918     2831.50000 0.9031       0.969368       0.096931
 -38.922   0.0886230469  0.96891     2832.00000 0.9022       0.977929       0.097788
 -38.916   0.0886230469  0.96849     2832.50000 0.9013       0.987488       0.098744
 -38.875   0.0886230469  0.96791     2833.00000 0.9003       0.997509       0.099747
 -38.803   0.0886230469  0.96717     2833.50000 0.8992       1.007566       0.100753
 -38.710   0.0886230469  0.96628     2834.00000 0.8983       1.017353       0.101732
 -38.606   0.0886230469  0.96527     2834.50000 0.8973       1.026684       0.102665
 -38.501   0.0886230469  0.96419     2835.00000 0.8965       1.035465       0.103544
 -38.407   0.0886230469  0.96308     2835.50000 0.8956       1.043667       0.104364
 -38.336   0.0886230469  0.96200     2836.00000 0.8949       1.051286       0.105126
 -38.298   0.0886230469  0.96100     2836.50000 0.8942       1.058321       0.105829
 -38.304   0.0886230469  0.96016     2837.00000 0.8935       1.064744       0.106471
 -38.365   0.0886230469  0.95950     2837.50000 0.8930       1.070500       0.107046
 -38.489   0.0886230469  0.95910     2838.00000 0.8925       1.075501       0.107545
 -38.686   0.0886230469  0.95896     2838.50000 0.8920       1.079642       0.107959
 -38.961   0.0886230469  0.95910     2839.00000 0.8917       1.082805       0.108274
 -39.320   0.0886230469  0.95952     2839.50000 0.8915       1.084888       0.108481
 -39.764   0.0886230469  0.96018     2840.00000 0.8914       1.085818       0.108572
 -40.294   0.0886230469  0.96105     2840.50000 0.8915       1.085571       0.108546
 -40.906   0.0886230469  0.96206     2841.00000 0.8916       1.084185       0.108405
 -41.596   0.0886230469  0.96315     2841.50000 0.8918       1.081767       0.108161
 -48.649   0.0886230469  0.96445     2849.00000 0.8894       1.105847       0.110570
 -48.157   0.0886230469  0.96328     2849.50000 0.8881       1.119433       0.111932
 -47.551   0.0886230469  0.96196     2850.00000 0.8866       1.134017       0.113393
 -46.851   0.0886230469  0.96049     2850.50000 0.8851       1.149208       0.114914
 -46.076   0.0886230469  0.95889     2851.00000 0.8835       1.164582       0.116453
 -45.244   0.0886230469  0.95717     2851.50000 0.8820       1.179699       0.117966
 -44.370   0.0886230469  0.95537     2852.00000 0.8806       1.194148       0.119411
 -43.465   0.0886230469  0.95351     2852.50000 0.8792       1.207584       0.120755
 -33.601   0.0886230469  0.93492     2869.50000 0.8823       1.176710       0.117656
 -32.932   0.0886230469  0.93679     2870.00000 0.8809       1.191278       0.119116
 -32.235   0.0886230469  0.93877     2870.50000 0.8792       1.208531       0.120843
 -31.528   0.0886230469  0.94081     2871.00000 0.8772       1.227763       0.122768
 -30.828   0.0886230469  0.94285     2871.50000 0.8752       1.248166       0.124808
 -30.149   0.0886230469  0.94485     2872.00000 0.8731       1.268871       0.126879
 -29.500   0.0886230469  0.94675     2872.50000 0.8711       1.288991       0.128890
 -28.892   0.0886230469  0.94853     2873.00000 0.8692       1.307669       0.130757
 -46.268   0.0886230469  0.88840     2889.00000 0.8646       1.354370       0.135420
 -45.714   0.0886230469  0.88771     2889.50000 0.8624       1.376377       0.137625
 -45.002   0.0886230469  0.88691     2890.00000 0.8601       1.398814       0.139871
 -44.153   0.0886230469  0.88612     2890.50000 0.8578       1.421698       0.142161
 -43.191   0.0886230469  0.88546     2891.00000 0.8555       1.445029       0.144495
 -42.143   0.0886230469  0.88501     2891.50000 0.8531       1.468770       0.146868
 -41.036   0.0886230469  0.88477     2892.00000 0.8507       1.492821       0.149272
 -42.363   0.0886230469  0.87746     2910.00000 0.8516       1.484283       0.148424
 -39.377   0.0886230469  0.87679     2910.50000 0.8496       1.504087       0.150405
 -36.659   0.0886230469  0.87662     2911.00000 0.8472       1.527540       0.152752
 -34.314   0.0886230469  0.87677     2911.50000 0.8447       1.552867       0.155286
 -32.419   0.0886230469  0.87702     2912.00000 0.8422       1.578085       0.157808
 -31.024   0.0886230469  0.87714     2912.50000 0.8399       1.601284       0.160125
 -33.569   0.0886230469  0.87948     2928.50000 0.8434       1.566024       0.156602
 -31.935   0.0886230469  0.88225     2929.00000 0.8447       1.552855       0.155283
 -30.611   0.0886230469  0.88555     2929.50000 0.8463       1.537239       0.153717
 -29.623   0.0886230469  0.88912     2930.00000 0.8481       1.518717       0.151859
 -28.990   0.0886230469  0.89269     2930.50000 0.8503       1.497133       0.149693
 -49.499   0.0886230469  0.91027     2939.50000 0.8583       1.417240       0.141707
 -49.378   0.0886230469  0.91117     2940.00000 0.8568       1.431985       0.143189
 -49.020   0.0886230469  0.91154     2940.50000 0.8556       1.443753       0.144371
 -48.448   0.0886230469  0.91144     2941.00000 0.8547       1.452695       0.145268
 -47.684   0.0886230469  0.91101     2941.50000 0.8541       1.459216       0.145921
 -46.754   0.0886230469  0.91042     2942.00000 0.8536       1.463858       0.146386
 -45.684   0.0886230469  0.90986     2942.50000 0.8533       1.467180       0.146718
 -44.503   0.0886230469  0.90946     2943.00000 0.8530       1.469671       0.146966
 -43.241   0.0886230469  0.90933     2943.50000 0.8528       1.471690       0.147168
 -41.930   0.0886230469  0.90948     2944.00000 0.8527       1.473441       0.147343
 -40.599   0.0886230469  0.90992     2944.50000 0.8525       1.474973       0.147497
 -39.276   0.0886230469  0.91058     2945.00000 0.8524       1.476197       0.147620
 -37.988   0.0886230469  0.91139     2945.50000 0.8523       1.476913       0.147691
 -36.758   0.0886230469  0.91229     2946.00000 0.8523       1.476842       0.147684
 -35.605   0.0886230469  0.91320     2946.50000 0.8524       1.475662       0.147564
 -34.545   0.0886230469  0.91405     2947.00000 0.8527       1.473027       0.147299
 -33.593   0.0886230469  0.91480     2947.50000 0.8531       1.468604       0.146853
 -32.762   0.0886230469  0.91542     2948.00000 0.8538       1.462083       0.146197
 -47.451   0.0886230469  0.91121     2961.00000 0.8718       1.282493       0.128231
 -46.485   0.0886230469  0.91198     2961.50000 0.8700       1.299756       0.129962
 -45.281   0.0886230469  0.91283     2962.00000 0.8684       1.316027       0.131592
 -43.871   0.0886230469  0.91375     2962.50000 0.8669       1.330994       0.133092
 -42.290   0.0886230469  0.91471     2963.00000 0.8656       1.344423       0.134437
 -40.577   0.0886230469  0.91570     2963.50000 0.8644       1.356149       0.135611
 -38.768   0.0886230469  0.91671     2964.00000 0.8634       1.366063       0.136604
 -36.903   0.0886230469  0.91772     2964.50000 0.8626       1.374101       0.137409
 -35.018   0.0886230469  0.91871     2965.00000 0.8620       1.380218       0.138021
 -33.152   0.0886230469  0.91968     2965.50000 0.8616       1.384379       0.138437
 -31.342   0.0886230469  0.92058     2966.00000 0.8613       1.386540       0.138653
 -29.624   0.0886230469  0.92139     2966.50000 0.8613       1.386641       0.138663
 -28.033   0.0886230469  0.92205     2967.00000 0.8615       1.384603       0.138459
 -26.605   0.0886230469  0.92252     2967.50000 0.8620       1.380335       0.138031
 -25.374   0.0886230469  0.92275     2968.00000 0.8626       1.373748       0.137371
 -49.818   0.0886230469  0.91788     2979.50000 0.8723       1.276671       0.127652
 -49.178   0.0886230469  0.91690     2980.00000 0.8716       1.283684       0.128361
 -48.222   0.0886230469  0.91581     2980.50000 0.8711       1.289481       0.128945
 -46.993   0.0886230469  0.91475     2981.00000 0.8706       1.294361       0.129435
 -45.540   0.0886230469  0.91383     2981.50000 0.8701       1.298662       0.129866
 -43.921   0.0886230469  0.91313     2982.00000 0.8697       1.302696       0.130269
 -42.196   0.0886230469  0.91271     2982.50000 0.8693       1.306678       0.130666
 -40.427   0.0886230469  0.91257     2983.00000 0.8689       1.310681       0.131065
 -38.677   0.0886230469  0.91271     2983.50000 0.8685       1.314615       0.131458
 -37.004   0.0886230469  0.91307     2984.00000 0.8682       1.318226       0.131819
 -44.080   0.0886230469  0.92957     2996.50000 0.8815       1.184886       0.118477
 -43.172   0.0886230469  0.93006     2997.00000 0.8791       1.209217       0.120914
 -42.059   0.0886230469  0.93017     2997.50000 0.8764       1.236293       0.123625
 -40.789   0.0886230469  0.93003     2998.00000 0.8735       1.265450       0.126543
 -39.412   0.0886230469  0.92983     2998.50000 0.8704       1.295840       0.129583
 -37.974   0.0886230469  0.92974     2999.00000 0.8674       1.326449       0.132645
 -36.515   0.0886230469  0.92994     2999.50000 0.8644       1.356128       0.135613
 -35.068   0.0886230469  0.93057     3000.00000 0.8616       1.383665       0.138366
 -33.663   0.0886230469  0.93168     3000.50000 0.8592       1.407869       0.140787
 -32.319   0.0886230469  0.93329     3001.00000 0.8572       1.427660       0.142766
 -31.054   0.0886230469  0.93535     3001.50000 0.8558       1.442153       0.144215
 -29.881   0.0886230469  0.93774     3002.00000 0.8549       1.450713       0.145071
 -28.809   0.0886230469  0.94036     3002.50000 0.8547       1.452983       0.145297
 -27.849   0.0886230469  0.94305     3003.00000 0.8551       1.448891       0.144887
 -27.008   0.0886230469  0.94568     3003.50000 0.8561       1.438618       0.143858
 -31.756   0.0886230469  0.96005     3016.50000 0.8773       1.227103       0.122696
 -31.709   0.0886230469  0.96183     3017.00000 0.8750       1.250561       0.125045
 -31.657   0.0886230469  0.96394     3017.50000 0.8727       1.272741       0.127265
 -31.602   0.0886230469  0.96634     3018.00000 0.8707       1.293113       0.129305
 -31.539   0.0886230469  0.96895     3018.50000 0.8689       1.311218       0.131116
 -31.465   0.0886230469  0.97168     3019.00000 0.8673       1.326665       0.132662
 -31.371   0.0886230469  0.97442     3019.50000 0.8661       1.339143       0.133910
 -31.250   0.0886230469  0.97706     3020.00000 0.8652       1.348423       0.134838
 -31.093   0.0886230469  0.97949     3020.50000 0.8646       1.354358       0.135431
 -30.892   0.0886230469  0.98164     3021.00000 0.8643       1.356883       0.135683
 -30.640   0.0886230469  0.98344     3021.50000 0.8644       1.356009       0.135594
 -30.331   0.0886230469  0.98485     3022.00000 0.8648       1.351827       0.135174
 -29.964   0.0886230469  0.98588     3022.50000 0.8656       1.344490       0.134438
 -29.539   0.0886230469  0.98653     3023.00000 0.8666       1.334214       0.133407
 -29.062   0.0886230469  0.98685     3023.50000 0.8679       1.321263       0.132108
 -34.703   0.0886230469  0.98569     3037.00000 0.8789       1.211001       0.121100
 -34.415   0.0886230469  0.98496     3037.50000 0.8769       1.231430       0.123143
 -34.056   0.0886230469  0.98412     3038.00000 0.8749       1.250812       0.125081
 -33.646   0.0886230469  0.98318     3038.50000 0.8731       1.268799       0.126878
 -33.205   0.0886230469  0.98215     3039.00000 0.8715       1.285100       0.128506
 -32.752   0.0886230469  0.98104     3039.50000 0.8701       1.299479       0.129942
 -32.303   0.0886230469  0.97988     3040.00000 0.8688       1.311755       0.131167
 -31.873   0.0886230469  0.97868     3040.50000 0.8678       1.321792       0.132169
 -31.476   0.0886230469  0.97748     3041.00000 0.8671       1.329499       0.132938
 -31.124   0.0886230469  0.97630     3041.50000 0.8665       1.334827       0.133470
 -30.827   0.0886230469  0.97514     3042.00000 0.8662       1.337774       0.133764
 -30.596   0.0886230469  0.97401     3042.50000 0.8662       1.338379       0.133824
 -30.435   0.0886230469  0.97293     3043.00000 0.8663       1.336734       0.133661
 -30.350   0.0886230469  0.97187     3043.50000 0.8667       1.332976       0.133286
 -30.341   0.0886230469  0.97082     3044.00000 0.8673       1.327296       0.132720
 -30.405   0.0886230469  0.96976     3044.50000 0.8680       1.319922       0.131984
 -30.535   0.0886230469  0.96867     3045.00000 0.8689       1.311119       0.131105
 -30.718   0.0886230469  0.96752     3045.50000 0.8699       1.301169       0.130112
 -30.940   0.0886230469  0.96628     3046.00000 0.8710       1.290363       0.129033
 -31.179   0.0886230469  0.96494     3046.50000 0.8721       1.278986       0.127896
 -31.415   0.0886230469  0.96349     3047.00000 0.8733       1.267313       0.126729
 -31.623   0.0886230469  0.96191     3047.50000 0.8744       1.255616       0.125560
 -31.781   0.0886230469  0.96020     3048.00000 0.8756       1.244172       0.124416
 -31.869   0.0886230469  0.95836     3048.50000 0.8767       1.233281       0.123327
 -31.869   0.0886230469  0.95640     3049.00000 0.8777       1.223280       0.122327
 -31.771   0.0886230469  0.95433     3049.50000 0.8785       1.214548       0.121454
 -31.568   0.0886230469  0.95216     3050.00000 0.8793       1.207502       0.120749
 -31.262   0.0886230469  0.94990     3050.50000 0.8797       1.202564       0.120255
 -30.861   0.0886230469  0.94758     3051.00000 0.8800       1.200133       0.120012
 -30.377   0.0886230469  0.94522     3051.50000 0.8799       1.200535       0.120051
 -29.827   0.0886230469  0.94286     3052.00000 0.8796       1.203979       0.120395
 -29.231   0.0886230469  0.94054     3052.50000 0.8790       1.210526       0.121050
 -26.788   0.0886230469  0.93252     3054.50000 0.8737       1.263205       0.126317
 -26.243   0.0886230469  0.93113     3055.00000 0.8719       1.280571       0.128054
 -25.744   0.0886230469  0.93008     3055.50000 0.8702       1.298282       0.129826
 -25.295   0.0886230469  0.92943     3056.00000 0.8684       1.315585       0.131557
 -24.895   0.0886230469  0.92918     3056.50000 0.8668       1.331737       0.133172
 -24.538   0.0886230469  0.92933     3057.00000 0.8654       1.346033       0.134603
 -24.219   0.0886230469  0.92983     3057.50000 0.8642       1.357835       0.135783
 -23.926   0.0886230469  0.93065     3058.00000 0.8633       1.366595       0.136660
 -23.650   0.0886230469  0.93171     3058.50000 0.8628       1.371871       0.137187
 -23.377   0.0886230469  0.93294     3059.00000 0.8627       1.373340       0.137333
 -23.096   0.0886230469  0.93427     3059.50000 0.8629       1.370815       0.137079
 -19.092   0.0886230469  0.94700     3066.00000 0.8838       1.161515       0.116150
 -18.951   0.0886230469  0.94765     3066.50000 0.8838       1.161638       0.116163
 -18.805   0.0886230469  0.94837     3067.00000 0.8832       1.168285       0.116828
 -18.637   0.0886230469  0.94919     3067.50000 0.8818       1.181737       0.118174
 -18.435   0.0886230469  0.95013     3068.00000 0.8798       1.202042       0.120204
 -18.188   0.0886230469  0.95122     3068.50000 0.8771       1.229016       0.122902
 -17.892   0.0886230469  0.95245     3069.00000 0.8738       1.262244       0.126224
 -17.546   0.0886230469  0.95384     3069.50000 0.8699       1.301084       0.130108
 -17.155   0.0886230469  0.95536     3070.00000 0.8655       1.344668       0.134467
 -16.724   0.0886230469  0.95700     3070.50000 0.8608       1.391906       0.139190
 -16.262   0.0886230469  0.95874     3071.00000 0.8559       1.441494       0.144149
 -15.781   0.0886230469  0.96055     3071.50000 0.8508       1.491930       0.149192
 -15.293   0.0886230469  0.96241     3072.00000 0.8458       1.541541       0.154151
 -14.809   0.0886230469  0.96430     3072.50000 0.8412       1.588524       0.158848
 -14.344   0.0886230469  0.96620     3073.00000 0.8369       1.631016       0.163095
 -13.912   0.0886230469  0.96809     3073.50000 0.8333       1.667187       0.166709
 -13.529   0.0886230469  0.96996     3074.00000 0.8305       1.695350       0.169522
 -13.209   0.0886230469  0.97176     3074.50000 0.8286       1.714080       0.171391
 -12.967   0.0886230469  0.97348     3075.00000 0.8278       1.722333       0.172213
 -19.226   0.0886230469  0.98739     3082.50000 0.8774       1.226287       0.122613
 -19.253   0.0886230469  0.98811     3083.00000 0.8769       1.231250       0.123112
 -14.920   0.0886230469  0.97226     3090.50000 0.8281       1.719036       0.171883
 -24.745   0.0886230469  0.99012     3153.50000 0.8672       1.328024       0.132802
 -24.765   0.0886230469  0.98997     3154.00000 0.8657       1.342774       0.134277
 -24.787   0.0886230469  0.98957     3154.50000 0.8639       1.361404       0.136140
 -24.811   0.0886230469  0.98883     3155.00000 0.8617       1.383273       0.138327
 -24.833   0.0886230469  0.98767     3155.50000 0.8592       1.407598       0.140758
 -24.850   0.0886230469  0.98602     3156.00000 0.8567       1.433467       0.143342
 -24.858   0.0886230469  0.98384     3156.50000 0.8540       1.459854       0.145975
 -24.851   0.0886230469  0.98113     3157.00000 0.8515       1.485646       0.148545
 -13.991   0.0886230469  0.86650     3221.50000 0.8690       1.310176       0.131017
 -13.242   0.0886230469  0.86504     3222.00000 0.8695       1.304907       0.130490
 -12.596   0.0886230469  0.86409     3222.50000 0.8696       1.303611       0.130361
 -12.099   0.0886230469  0.86362     3223.00000 0.8694       1.305827       0.130583
 -11.786   0.0886230469  0.86351     3223.50000 0.8689       1.310915       0.131091
 -11.688   0.0886230469  0.86359     3224.00000 0.8682       1.318125       0.131811
 -34.776   0.0886230469  0.95055     3576.50000 0.8635       1.364823       0.136481
 -35.242   0.0886230469  0.94986     3577.00000 0.8648       1.351665       0.135167
 -35.401   0.0886230469  0.94942     3577.50000 0.8665       1.334717       0.133471
 -35.260   0.0886230469  0.94923     3578.00000 0.8686       1.314328       0.131429
 -34.833   0.0886230469  0.94922     3578.50000 0.8709       1.291152       0.129108
 -34.137   0.0886230469  0.94932     3579.00000 0.8734       1.266133       0.126601
 -33.191   0.0886230469  0.94944     3579.50000 0.8760       1.240467       0.124029
 -45.728   0.0886230469  0.92642     3702.50000 0.9051       0.949489       0.094949
 -47.987   0.0886230469  0.92138     3703.00000 0.9031       0.968567       0.096857
 -50.200   0.0886230469  0.91562     3703.50000 0.9003       0.996578       0.099657
 -52.265   0.0886230469  0.90912     3704.00000 0.8967       1.033027       0.103302
 -54.108   0.0886230469  0.90188     3704.50000 0.8923       1.077073       0.107706
 -55.679   0.0886230469  0.89390     3705.00000 0.8872       1.127579       0.112756
 -56.952   0.0886230469  0.88521     3705.50000 0.8817       1.183180       0.118315
 -57.925   0.0886230469  0.87584     3706.00000 0.8758       1.242348       0.124230
 -58.608   0.0886230469  0.86584     3706.50000 0.8697       1.303443       0.130336
 -59.021   0.0886230469  0.85527     3707.00000 0.8635       1.364756       0.136462
 -57.474   0.0886230469  0.84093     3773.50000 0.7876       2.124033       0.212380
 -59.611   0.0886230469  0.84147     3774.00000 0.7870       2.129835       0.212972
 -61.749   0.0886230469  0.84114     3774.50000 0.7884       2.116474       0.211644
 -63.848   0.0886230469  0.83980     3775.00000 0.7916       2.083729       0.208373
 -65.862   0.0886230469  0.83702     3775.50000 0.7967       2.032719       0.203270
 -67.737   0.0886230469  0.83220     3776.00000 0.8034       1.965643       0.196558
   2.238   0.0886230469  0.76973     3977.00000 0.8301       1.699292       0.169929
 -35.339   0.0932617188  0.86305     2718.50000 0.8487       1.512915       0.151278
 -34.509   0.0932617188  0.86716     2719.00000 0.8485       1.515400       0.151532
 -33.782   0.0932617188  0.87159     2719.50000 0.8488       1.511756       0.151172
 -33.177   0.0932617188  0.87631     2720.00000 0.8498       1.501692       0.150168
 -32.714   0.0932617188  0.88129     2720.50000 0.8515       1.485269       0.148527
 -32.416   0.0932617188  0.88650     2721.00000 0.8537       1.462913       0.146291
 -32.309   0.0932617188  0.89189     2721.50000 0.8565       1.435401       0.143538
 -32.415   0.0932617188  0.89743     2722.00000 0.8596       1.403826       0.140379
 -32.754   0.0932617188  0.90304     2722.50000 0.8631       1.369532       0.136947
 -44.682   0.0932617188  0.96090     2753.50000 0.8723       1.276590       0.127656
 -44.304   0.0932617188  0.95915     2754.00000 0.8744       1.255578       0.125556
 -43.881   0.0932617188  0.95699     2754.50000 0.8764       1.235882       0.123588
 -43.423   0.0932617188  0.95454     2755.00000 0.8782       1.218334       0.121833
 -42.940   0.0932617188  0.95194     2755.50000 0.8796       1.203532       0.120353
 -42.445   0.0932617188  0.94931     2756.00000 0.8808       1.191824       0.119182
 -41.951   0.0932617188  0.94677     2756.50000 0.8817       1.183314       0.118330
 -41.471   0.0932617188  0.94441     2757.00000 0.8822       1.177893       0.117787
 -41.019   0.0932617188  0.94230     2757.50000 0.8825       1.175271       0.117524
 -40.608   0.0932617188  0.94049     2758.00000 0.8825       1.175020       0.117497
 -40.249   0.0932617188  0.93903     2758.50000 0.8823       1.176623       0.117657
 -39.947   0.0932617188  0.93794     2759.00000 0.8821       1.179522       0.117946
 -39.706   0.0932617188  0.93723     2759.50000 0.8817       1.183167       0.118310
 -39.521   0.0932617188  0.93691     2760.00000 0.8813       1.187066       0.118700
 -39.381   0.0932617188  0.93698     2760.50000 0.8809       1.190826       0.119077
 -39.270   0.0932617188  0.93743     2761.00000 0.8806       1.194192       0.119415
 -39.165   0.0932617188  0.93823     2761.50000 0.8803       1.197057       0.119703
 -39.038   0.0932617188  0.93934     2762.00000 0.8801       1.199468       0.119945
 -38.859   0.0932617188  0.94072     2762.50000 0.8798       1.201600       0.120160
 -38.599   0.0932617188  0.94231     2763.00000 0.8796       1.203715       0.120371
 -38.235   0.0932617188  0.94404     2763.50000 0.8794       1.206089       0.120608
 -37.754   0.0932617188  0.94583     2764.00000 0.8791       1.208949       0.120892
 -37.156   0.0932617188  0.94763     2764.50000 0.8788       1.212391       0.121234
 -36.455   0.0932617188  0.94938     2765.00000 0.8784       1.216323       0.121623
 -35.680   0.0932617188  0.95104     2765.50000 0.8780       1.220434       0.122030
 -34.606   0.0932617188  0.95896     2772.00000 0.8912       1.088113       0.108802
 -35.844   0.0932617188  0.95912     2772.50000 0.8930       1.070359       0.107029
 -37.256   0.0932617188  0.95929     2773.00000 0.8944       1.055997       0.105594
 -38.813   0.0932617188  0.95945     2773.50000 0.8954       1.046106       0.104606
 -40.472   0.0932617188  0.95957     2774.00000 0.8958       1.041630       0.104160
 -42.185   0.0932617188  0.95964     2774.50000 0.8957       1.043331       0.104330
 -43.893   0.0932617188  0.95962     2775.00000 0.8948       1.051738       0.105172
 -45.539   0.0932617188  0.95950     2775.50000 0.8933       1.067101       0.106708
 -47.067   0.0932617188  0.95930     2776.00000 0.8911       1.089343       0.108932
 -48.428   0.0932617188  0.95902     2776.50000 0.8882       1.118031       0.111801
 -49.584   0.0932617188  0.95868     2777.00000 0.8848       1.152348       0.115232
 -50.511   0.0932617188  0.95831     2777.50000 0.8809       1.191098       0.119106
 -51.196   0.0932617188  0.95794     2778.00000 0.8767       1.232747       0.123269
 -51.641   0.0932617188  0.95758     2778.50000 0.8725       1.275509       0.127543
 -51.859   0.0932617188  0.95726     2779.00000 0.8683       1.317497       0.131738
 -51.869   0.0932617188  0.95696     2779.50000 0.8643       1.356913       0.135676
 -49.239   0.0932617188  0.95969     2814.00000 0.8804       1.196321       0.119616
 -50.183   0.0932617188  0.95949     2814.50000 0.8794       1.205991       0.120585
 -51.111   0.0932617188  0.95925     2815.00000 0.8777       1.223275       0.122314
 -51.957   0.0932617188  0.95900     2815.50000 0.8753       1.247289       0.124716
 -52.661   0.0932617188  0.95873     2816.00000 0.8723       1.276731       0.127659
 -53.173   0.0932617188  0.95847     2816.50000 0.8690       1.309851       0.130970
 -53.456   0.0932617188  0.95820     2817.00000 0.8656       1.344483       0.134430
 -37.244   0.0932617188  0.96092     2828.00000 0.9057       0.942671       0.094254
 -37.531   0.0932617188  0.96120     2828.50000 0.9068       0.931659       0.093155
 -37.856   0.0932617188  0.96157     2829.00000 0.9074       0.926053       0.092596
 -38.186   0.0932617188  0.96200     2829.50000 0.9074       0.925744       0.092566
 -38.487   0.0932617188  0.96244     2830.00000 0.9070       0.930337       0.093026
 -38.737   0.0932617188  0.96285     2830.50000 0.9061       0.939144       0.093908
 -38.919   0.0932617188  0.96318     2831.00000 0.9049       0.951211       0.095115
 -39.026   0.0932617188  0.96340     2831.50000 0.9035       0.965402       0.096535
 -39.061   0.0932617188  0.96348     2832.00000 0.9020       0.980530       0.098048
 -39.033   0.0932617188  0.96340     2832.50000 0.9005       0.995506       0.099546
 -38.953   0.0932617188  0.96315     2833.00000 0.8991       1.009468       0.100943
 -38.836   0.0932617188  0.96271     2833.50000 0.8978       1.021865       0.102183
 -38.696   0.0932617188  0.96208     2834.00000 0.8968       1.032472       0.103244
 -38.546   0.0932617188  0.96125     2834.50000 0.8959       1.041342       0.104132
 -38.399   0.0932617188  0.96027     2835.00000 0.8951       1.048718       0.104869
 -38.268   0.0932617188  0.95917     2835.50000 0.8945       1.054932       0.105491
 -38.165   0.0932617188  0.95803     2836.00000 0.8940       1.060315       0.106029
 -38.101   0.0932617188  0.95693     2836.50000 0.8935       1.065133       0.106511
 -38.088   0.0932617188  0.95599     2837.00000 0.8930       1.069549       0.106952
 -38.136   0.0932617188  0.95530     2837.50000 0.8926       1.073610       0.107358
 -38.257   0.0932617188  0.95493     2838.00000 0.8923       1.077261       0.107722
 -38.459   0.0932617188  0.95494     2838.50000 0.8920       1.080361       0.108032
 -38.750   0.0932617188  0.95534     2839.00000 0.8917       1.082719       0.108267
 -39.138   0.0932617188  0.95610     2839.50000 0.8916       1.084127       0.108406
 -39.625   0.0932617188  0.95716     2840.00000 0.8916       1.084396       0.108432
 -40.213   0.0932617188  0.95844     2840.50000 0.8917       1.083392       0.108329
 -40.900   0.0932617188  0.95982     2841.00000 0.8919       1.081066       0.108095
 -41.680   0.0932617188  0.96119     2841.50000 0.8923       1.077472       0.107733
 -48.220   0.0932617188  0.96114     2849.50000 0.8869       1.131414       0.113129
 -47.503   0.0932617188  0.96015     2850.00000 0.8849       1.150802       0.115071
 -46.724   0.0932617188  0.95896     2850.50000 0.8830       1.170359       0.117029
 -45.910   0.0932617188  0.95759     2851.00000 0.8811       1.189311       0.118927
 -45.081   0.0932617188  0.95603     2851.50000 0.8793       1.206862       0.120683
 -44.252   0.0932617188  0.95432     2852.00000 0.8778       1.222263       0.122224
 -34.020   0.0932617188  0.92927     2869.00000 0.8852       1.148584       0.114842
 -33.387   0.0932617188  0.93149     2869.50000 0.8838       1.162317       0.116219
 -32.724   0.0932617188  0.93385     2870.00000 0.8820       1.180598       0.118050
 -32.052   0.0932617188  0.93627     2870.50000 0.8797       1.202620       0.120254
 -31.385   0.0932617188  0.93867     2871.00000 0.8773       1.227365       0.122730
 -30.736   0.0932617188  0.94098     2871.50000 0.8746       1.253657       0.125360
 -30.112   0.0932617188  0.94312     2872.00000 0.8720       1.280228       0.128017
 -29.516   0.0932617188  0.94504     2872.50000 0.8694       1.305794       0.130573
 -28.952   0.0932617188  0.94672     2873.00000 0.8671       1.329120       0.132904
 -28.421   0.0932617188  0.94813     2873.50000 0.8651       1.349092       0.134900
 -47.104   0.0932617188  0.87886     2888.50000 0.8652       1.348070       0.134787
 -46.682   0.0932617188  0.87870     2889.00000 0.8630       1.370591       0.137044
 -46.091   0.0932617188  0.87812     2889.50000 0.8607       1.393175       0.139307
 -45.350   0.0932617188  0.87716     2890.00000 0.8584       1.415948       0.141587
 -44.482   0.0932617188  0.87597     2890.50000 0.8561       1.439053       0.143899
 -43.513   0.0932617188  0.87471     2891.00000 0.8537       1.462620       0.146257
 -42.466   0.0932617188  0.87356     2891.50000 0.8513       1.486721       0.148667
 -41.368   0.0932617188  0.87268     2892.00000 0.8489       1.511346       0.151128
 -40.247   0.0932617188  0.87214     2892.50000 0.8464       1.536361       0.153627
 -38.708   0.0932617188  0.85747     2910.50000 0.8533       1.466657       0.146656
 -35.725   0.0932617188  0.85639     2911.00000 0.8508       1.492123       0.149205
 -33.156   0.0932617188  0.85589     2911.50000 0.8480       1.520344       0.152031
 -31.090   0.0932617188  0.85579     2912.00000 0.8451       1.549034       0.154903
 -29.582   0.0932617188  0.85582     2912.50000 0.8424       1.575989       0.157598
 -31.156   0.0932617188  0.87091     2929.00000 0.8457       1.543483       0.154345
 -29.611   0.0932617188  0.87386     2929.50000 0.8476       1.524544       0.152447
 -28.441   0.0932617188  0.87658     2930.00000 0.8498       1.502506       0.150237
 -27.670   0.0932617188  0.87886     2930.50000 0.8523       1.477085       0.147687
 -50.243   0.0932617188  0.89123     2939.50000 0.8541       1.459230       0.145905
 -50.084   0.0932617188  0.89170     2940.00000 0.8526       1.473818       0.147373
 -49.706   0.0932617188  0.89210     2940.50000 0.8518       1.482073       0.148204
 -49.127   0.0932617188  0.89259     2941.00000 0.8515       1.484966       0.148496
 -48.362   0.0932617188  0.89334     2941.50000 0.8516       1.483898       0.148390
 -47.427   0.0932617188  0.89445     2942.00000 0.8520       1.480386       0.148038
 -46.342   0.0932617188  0.89596     2942.50000 0.8524       1.475806       0.147579
 -45.135   0.0932617188  0.89782     2943.00000 0.8529       1.471248       0.147123
 -43.833   0.0932617188  0.89993     2943.50000 0.8533       1.467451       0.146743
 -42.469   0.0932617188  0.90214     2944.00000 0.8535       1.464816       0.146480
 -41.077   0.0932617188  0.90427     2944.50000 0.8537       1.463449       0.146344
 -39.687   0.0932617188  0.90615     2945.00000 0.8537       1.463220       0.146322
 -38.328   0.0932617188  0.90762     2945.50000 0.8536       1.463830       0.146383
 -37.024   0.0932617188  0.90854     2946.00000 0.8535       1.464866       0.146486
 -35.795   0.0932617188  0.90883     2946.50000 0.8534       1.465844       0.146583
 -34.657   0.0932617188  0.90847     2947.00000 0.8534       1.466237       0.146620
 -33.624   0.0932617188  0.90747     2947.50000 0.8535       1.465500       0.146542
 -48.887   0.0932617188  0.89508     2961.00000 0.8716       1.283827       0.128363
 -47.781   0.0932617188  0.89672     2961.50000 0.8695       1.305321       0.130516
 -46.399   0.0932617188  0.89834     2962.00000 0.8675       1.325536       0.132541
 -44.787   0.0932617188  0.89985     2962.50000 0.8656       1.343967       0.134387
 -42.991   0.0932617188  0.90119     2963.00000 0.8640       1.360218       0.136015
 -41.062   0.0932617188  0.90232     2963.50000 0.8626       1.374008       0.137397
 -39.043   0.0932617188  0.90325     2964.00000 0.8615       1.385170       0.138514
 -36.980   0.0932617188  0.90398     2964.50000 0.8606       1.393635       0.139362
 -34.911   0.0932617188  0.90455     2965.00000 0.8601       1.399417       0.139941
 -32.874   0.0932617188  0.90497     2965.50000 0.8597       1.402576       0.140257
 -30.905   0.0932617188  0.90529     2966.00000 0.8597       1.403190       0.140319
 -29.040   0.0932617188  0.90552     2966.50000 0.8599       1.401326       0.140132
 -27.313   0.0932617188  0.90569     2967.00000 0.8603       1.397026       0.139702
 -25.760   0.0932617188  0.90579     2967.50000 0.8610       1.390301       0.139028
 -24.415   0.0932617188  0.90582     2968.00000 0.8619       1.381146       0.138112
 -50.576   0.0932617188  0.90327     2979.50000 0.8716       1.284035       0.128388
 -49.805   0.0932617188  0.90313     2980.00000 0.8712       1.288237       0.128816
 -48.691   0.0932617188  0.90299     2980.50000 0.8709       1.290901       0.129088
 -47.281   0.0932617188  0.90290     2981.00000 0.8707       1.292594       0.129259
 -45.630   0.0932617188  0.90293     2981.50000 0.8706       1.293916       0.129391
 -43.803   0.0932617188  0.90307     2982.00000 0.8705       1.295402       0.129539
 -41.871   0.0932617188  0.90332     2982.50000 0.8703       1.297442       0.129741
