 -55.095   0.4875488281  0.80875     2663.50000 0.9369       0.630816       0.063079
-120.149   0.4875488281  0.87422     3456.50000 0.6455       3.545263       0.354517
  36.058   0.4921875000  0.76712      732.00000 0.8103       1.897386       0.189738
 -54.937   0.4921875000  0.81386     2663.50000 0.9344       0.656110       0.065608
-120.151   0.4921875000  0.87490     3456.50000 0.6400       3.600134       0.360004
  35.936   0.4968261719  0.76956      732.00000 0.8057       1.943033       0.194303
 -54.791   0.4968261719  0.81837     2663.50000 0.9318       0.681801       0.068177
-120.155   0.4968261719  0.87526     3456.50000 0.6344       3.655869       0.365577
  35.814   0.5014648438  0.77194      732.00000 0.8010       1.989543       0.198954
 -54.656   0.5014648438  0.82246     2663.50000 0.9292       0.707889       0.070786
-120.160   0.5014648438  0.87529     3456.50000 0.6288       3.712457       0.371236
2009  21 16 57 45 350
  90.478   0.0422363281  0.77640     2513.00000 0.8933       1.066697       0.106666
  93.231   0.0422363281  0.78138     2513.50000 0.8957       1.042610       0.104261
  95.973   0.0422363281  0.78588     2514.00000 0.8983       1.016996       0.101699
  98.656   0.0422363281  0.78979     2514.50000 0.9010       0.989805       0.098976
  67.187   0.0422363281  0.80698     2533.00000 0.9039       0.961408       0.096130
  65.402   0.0422363281  0.80660     2533.50000 0.9070       0.930154       0.093002
  65.553   0.0468750000  0.95190     2528.50000 0.8580       1.419873       0.141987
  66.829   0.0468750000  0.95208     2529.00000 0.8616       1.383734       0.138373
  67.990   0.0468750000  0.95219     2529.50000 0.8655       1.345296       0.134529
  69.002   0.0468750000  0.95221     2530.00000 0.8694       1.305761       0.130575
  69.834   0.0468750000  0.95213     2530.50000 0.8734       1.266178       0.126616
  70.463   0.0468750000  0.95194     2531.00000 0.8773       1.227438       0.122741
  70.869   0.0468750000  0.95165     2531.50000 0.8810       1.190300       0.119026
  71.040   0.0468750000  0.95126     2532.00000 0.8845       1.155402       0.115534
  70.973   0.0468750000  0.95078     2532.50000 0.8877       1.123278       0.112320
  70.672   0.0468750000  0.95023     2533.00000 0.8906       1.094364       0.109427
  70.152   0.0468750000  0.94963     2533.50000 0.8931       1.069008       0.106890
 120.568   0.0561523438  0.79394     2288.00000 0.9253       0.746795       0.074676
 119.917   0.0561523438  0.79410     2288.50000 0.9239       0.761022       0.076099
 119.380   0.0561523438  0.79413     2289.00000 0.9225       0.775486       0.077546
 118.954   0.0561523438  0.79407     2289.50000 0.9210       0.790027       0.079000
 118.637   0.0561523438  0.79400     2290.00000 0.9196       0.804493       0.080447
 118.424   0.0561523438  0.79395     2290.50000 0.9181       0.818748       0.081873
 118.308   0.0561523438  0.79397     2291.00000 0.9167       0.832664       0.083265
 118.286   0.0561523438  0.79409     2291.50000 0.9154       0.846136       0.084613
 118.349   0.0561523438  0.79433     2292.00000 0.9141       0.859075       0.085907
 118.493   0.0561523438  0.79472     2292.50000 0.9129       0.871413       0.087141
 118.711   0.0561523438  0.79525     2293.00000 0.9117       0.883100       0.088310
 118.995   0.0561523438  0.79595     2293.50000 0.9106       0.894105       0.089410
 119.340   0.0561523438  0.79681     2294.00000 0.9096       0.904418       0.090442
 115.468   0.0607910156  0.75107     2290.50000 0.9163       0.837164       0.083715
 115.460   0.0607910156  0.75269     2291.00000 0.9145       0.854540       0.085453
 115.565   0.0607910156  0.75453     2291.50000 0.9129       0.870836       0.087083
 115.777   0.0607910156  0.75657     2292.00000 0.9114       0.885932       0.088593
 116.085   0.0607910156  0.75881     2292.50000 0.9100       0.899748       0.089975
 116.482   0.0607910156  0.76123     2293.00000 0.9088       0.912254       0.091225
 116.959   0.0607910156  0.76383     2293.50000 0.9077       0.923461       0.092346
 117.508   0.0607910156  0.76660     2294.00000 0.9067       0.933417       0.093341
  47.475   0.0654296875  0.81877     3956.00000 0.8137       1.862746       0.186258
  46.960   0.0654296875  0.82137     3956.50000 0.8201       1.799006       0.179885
  46.430   0.0654296875  0.82163     3957.00000 0.8272       1.727725       0.172757
  45.878   0.0654296875  0.81986     3957.50000 0.8349       1.650922       0.165077
  45.296   0.0654296875  0.81706     3958.00000 0.8429       1.570798       0.157065
  44.678   0.0654296875  0.81426     3958.50000 0.8510       1.489682       0.148955
  44.021   0.0654296875  0.81172     3959.00000 0.8590       1.409968       0.140984
  43.327   0.0654296875  0.80897     3959.50000 0.8666       1.334056       0.133394
  46.976   0.0700683594  0.81163     3956.00000 0.8117       1.883393       0.188332
  46.442   0.0700683594  0.81216     3956.50000 0.8180       1.820512       0.182044
  45.893   0.0700683594  0.81094     3957.00000 0.8250       1.749969       0.174990
  45.323   0.0700683594  0.80966     3957.50000 0.8326       1.673855       0.167378
  44.726   0.0700683594  0.80835     3958.00000 0.8406       1.594449       0.159438
  44.096   0.0700683594  0.80672     3958.50000 0.8486       1.514149       0.151408
  43.434   0.0700683594  0.80466     3959.00000 0.8565       1.435410       0.143534
  42.741   0.0700683594  0.80220     3959.50000 0.8639       1.360674       0.136061
  46.428   0.0747070312  0.76038     3956.00000 0.8093       1.907314       0.190729
  45.865   0.0747070312  0.76335     3956.50000 0.8157       1.843023       0.184300
  45.288   0.0747070312  0.76570     3957.00000 0.8229       1.770792       0.177076
  44.690   0.0747070312  0.76829     3957.50000 0.8307       1.692851       0.169282
  44.065   0.0747070312  0.77165     3958.00000 0.8388       1.611616       0.161158
  43.409   0.0747070312  0.77635     3958.50000 0.8470       1.529615       0.152958
  42.723   0.0747070312  0.78314     3959.00000 0.8551       1.449424       0.144939
  42.009   0.0747070312  0.79312     3959.50000 0.8626       1.373591       0.137356
   9.662   0.0793457031  0.75143     2606.50000 0.8675       1.325505       0.132550
   9.202   0.0793457031  0.76056     2607.00000 0.8668       1.332451       0.133239
   8.576   0.0793457031  0.76910     2607.50000 0.8658       1.342402       0.134223
  44.024   0.0793457031  0.75996     3957.50000 0.8291       1.708873       0.170886
  43.368   0.0793457031  0.77445     3958.00000 0.8376       1.623953       0.162394
  42.681   0.0793457031  0.79252     3958.50000 0.8462       1.538515       0.153850
  41.964   0.0793457031  0.81414     3959.00000 0.8545       1.455274       0.145525
  41.222   0.0793457031  0.83684     3959.50000 0.8623       1.376897       0.137688
  40.468   0.0793457031  0.85988     3960.00000 0.8694       1.305940       0.130592
  37.495   0.0839843750  0.75512     2505.00000 0.8642       1.357593       0.135758
   7.574   0.0839843750  0.75209     2606.00000 0.8705       1.294825       0.129481
   7.186   0.0839843750  0.76213     2606.50000 0.8703       1.296661       0.129666
   6.653   0.0839843750  0.77138     2607.00000 0.8698       1.301861       0.130182
   5.962   0.0839843750  0.77979     2607.50000 0.8689       1.311309       0.131115
  44.649   0.0839843750  0.75522     3956.50000 0.8111       1.888919       0.188892
  44.012   0.0839843750  0.77449     3957.00000 0.8192       1.807962       0.180796
  43.356   0.0839843750  0.79676     3957.50000 0.8279       1.721385       0.172138
  42.672   0.0839843750  0.82070     3958.00000 0.8368       1.631884       0.163188
  41.956   0.0839843750  0.84713     3958.50000 0.8458       1.542250       0.154224
  41.209   0.0839843750  0.86948     3959.00000 0.8545       1.455297       0.145529
  40.437   0.0839843750  0.88421     3959.50000 0.8626       1.373791       0.137378
  39.656   0.0839843750  0.89262     3960.00000 0.8700       1.300372       0.130036
  33.633   0.0886230469  0.80660     2503.50000 0.8687       1.313390       0.131330
  34.521   0.0886230469  0.79722     2504.00000 0.8663       1.337104       0.133705
  35.498   0.0886230469  0.78663     2504.50000 0.8640       1.360271       0.136024
  36.547   0.0886230469  0.77487     2505.00000 0.8618       1.382342       0.138233
  37.647   0.0886230469  0.76197     2505.50000 0.8597       1.402651       0.140265
   5.459   0.0886230469  0.75439     2606.00000 0.8736       1.264090       0.126406
   4.964   0.0886230469  0.76399     2606.50000 0.8737       1.262977       0.126298
   4.344   0.0886230469  0.77259     2607.00000 0.8733       1.266641       0.126660
   3.591   0.0886230469  0.78013     2607.50000 0.8724       1.276083       0.127593
  44.044   0.0886230469  0.80314     3956.50000 0.8093       1.906794       0.190679
  43.389   0.0886230469  0.83196     3957.00000 0.8179       1.820718       0.182072
  42.713   0.0886230469  0.85855     3957.50000 0.8271       1.729450       0.172945
  42.008   0.0886230469  0.87782     3958.00000 0.8364       1.635685       0.163568
  41.269   0.0886230469  0.88941     3958.50000 0.8458       1.542221       0.154222
  40.496   0.0886230469  0.89591     3959.00000 0.8548       1.451895       0.145189
  39.696   0.0886230469  0.89949     3959.50000 0.8632       1.367509       0.136750
  38.887   0.0886230469  0.90136     3960.00000 0.8708       1.291756       0.129175
  32.354   0.0932617188  0.80924     2503.50000 0.8682       1.318224       0.131814
  33.395   0.0932617188  0.80202     2504.00000 0.8654       1.345550       0.134550
  34.551   0.0932617188  0.79372     2504.50000 0.8627       1.373392       0.137337
  35.789   0.0932617188  0.78423     2505.00000 0.8599       1.401116       0.140111
  37.074   0.0932617188  0.77349     2505.50000 0.8572       1.427865       0.142786
  38.377   0.0932617188  0.76148     2506.00000 0.8547       1.452569       0.145256
   2.768   0.0932617188  0.75301     2606.50000 0.8776       1.223951       0.122395
   2.040   0.0932617188  0.76036     2607.00000 0.8773       1.226566       0.122653
  43.474   0.0932617188  0.84863     3956.50000 0.8083       1.916811       0.191680
  42.813   0.0932617188  0.87087     3957.00000 0.8173       1.826989       0.182698
  42.129   0.0932617188  0.88438     3957.50000 0.8267       1.732553       0.173255
  41.410   0.0932617188  0.89181     3958.00000 0.8364       1.636043       0.163604
  40.652   0.0932617188  0.89584     3958.50000 0.8460       1.540149       0.154015
  39.854   0.0932617188  0.89803     3959.00000 0.8552       1.447647       0.144764
  39.025   0.0932617188  0.89918     3959.50000 0.8639       1.361311       0.136130
  38.186   0.0932617188  0.89971     3960.00000 0.8716       1.283840       0.128383
  29.946   0.0979003906  0.81126     2503.00000 0.8712       1.287953       0.128782
  31.009   0.0979003906  0.80698     2503.50000 0.8684       1.316488       0.131641
  32.276   0.0979003906  0.80200     2504.00000 0.8653       1.347251       0.134722
  33.694   0.0979003906  0.79618     2504.50000 0.8620       1.379909       0.137990
  35.204   0.0979003906  0.78938     2505.00000 0.8586       1.413813       0.141381
  36.749   0.0979003906  0.78145     2505.50000 0.8552       1.447954       0.144795
  38.276   0.0979003906  0.77230     2506.00000 0.8519       1.480946       0.148092
  39.747   0.0979003906  0.76182     2506.50000 0.8489       1.511068       0.151100
  42.971   0.0979003906  0.87762     3956.50000 0.8083       1.916771       0.191675
  42.318   0.0979003906  0.88505     3957.00000 0.8174       1.825898       0.182589
  41.633   0.0979003906  0.88875     3957.50000 0.8269       1.730882       0.173088
  40.905   0.0979003906  0.89058     3958.00000 0.8366       1.634009       0.163401
  40.127   0.0979003906  0.89151     3958.50000 0.8462       1.537798       0.153780
  39.301   0.0979003906  0.89199     3959.00000 0.8555       1.444898       0.144489
  38.438   0.0979003906  0.89221     3959.50000 0.8642       1.358003       0.135800
  37.561   0.0979003906  0.89228     3960.00000 0.8720       1.279767       0.127976
  36.710   0.0979003906  0.89224     3960.50000 0.8787       1.212719       0.121271
  28.243   0.1025390625  0.80171     2503.00000 0.8720       1.279815       0.127969
  29.542   0.1025390625  0.79890     2503.50000 0.8690       1.309938       0.130988
  31.127   0.1025390625  0.79571     2504.00000 0.8656       1.343640       0.134362
  32.909   0.1025390625  0.79201     2504.50000 0.8619       1.380808       0.138081
  34.791   0.1025390625  0.78767     2505.00000 0.8579       1.420899       0.142089
  36.677   0.1025390625  0.78255     2505.50000 0.8537       1.462838       0.146281
  38.488   0.1025390625  0.77650     2506.00000 0.8495       1.504980       0.150492
  40.163   0.1025390625  0.76938     2506.50000 0.8455       1.545140       0.154504
  41.669   0.1025390625  0.76104     2507.00000 0.8419       1.580672       0.158053
  42.565   0.1025390625  0.87789     3956.50000 0.8094       1.906092       0.190606
  41.929   0.1025390625  0.87891     3957.00000 0.8182       1.817534       0.181752
  41.248   0.1025390625  0.87908     3957.50000 0.8275       1.724983       0.172498
  40.509   0.1025390625  0.87891     3958.00000 0.8369       1.630504       0.163050
  39.708   0.1025390625  0.87867     3958.50000 0.8464       1.536439       0.153644
  38.846   0.1025390625  0.87847     3959.00000 0.8555       1.445277       0.144527
  37.938   0.1025390625  0.87835     3959.50000 0.8640       1.359547       0.135954
  37.013   0.1025390625  0.87830     3960.00000 0.8718       1.281753       0.128175
  36.113   0.1025390625  0.87829     3960.50000 0.8786       1.214329       0.121432
 120.763   0.1071777344  0.78350     2299.50000 0.9113       0.887067       0.088706
 121.035   0.1071777344  0.79004     2300.00000 0.9068       0.932008       0.093198
  26.296   0.1071777344  0.78708     2503.00000 0.8730       1.270070       0.126995
  27.913   0.1071777344  0.78500     2503.50000 0.8699       1.301102       0.130106
  29.928   0.1071777344  0.78287     2504.00000 0.8663       1.336896       0.133689
  32.197   0.1071777344  0.78060     2504.50000 0.8622       1.377743       0.137774
  34.563   0.1071777344  0.77812     2505.00000 0.8577       1.423374       0.142335
  36.876   0.1071777344  0.77535     2505.50000 0.8527       1.472776       0.147272
  39.019   0.1071777344  0.77216     2506.00000 0.8476       1.524143       0.152405
  40.913   0.1071777344  0.76835     2506.50000 0.8425       1.574928       0.157479
  42.523   0.1071777344  0.76370     2507.00000 0.8378       1.621917       0.162175
  43.845   0.1071777344  0.75797     2507.50000 0.8339       1.661336       0.166113
  42.276   0.1071777344  0.86144     3956.50000 0.8115       1.885454       0.188542
  41.664   0.1071777344  0.86179     3957.00000 0.8198       1.802389       0.180238
  40.986   0.1071777344  0.86153     3957.50000 0.8285       1.715156       0.171515
  37.522   0.1071777344  0.85745     3959.50000 0.8633       1.366957       0.136695
  36.533   0.1071777344  0.85700     3960.00000 0.8709       1.291134       0.129112
  35.569   0.1071777344  0.85687     3960.50000 0.8776       1.224104       0.122410
 119.902   0.1118164062  0.77318     2299.00000 0.9167       0.832862       0.083286
 119.005   0.1118164062  0.77747     2299.50000 0.9110       0.889850       0.088985
 118.908   0.1118164062  0.78125     2300.00000 0.9051       0.949300       0.094929
 119.710   0.1118164062  0.78430     2300.50000 0.8996       1.004057       0.100401
  24.075   0.1118164062  0.76828     2503.00000 0.8738       1.261831       0.126173
  26.106   0.1118164062  0.76605     2503.50000 0.8707       1.292970       0.129295
  28.684   0.1118164062  0.76414     2504.00000 0.8670       1.329620       0.132962
  31.578   0.1118164062  0.76252     2504.50000 0.8627       1.372766       0.137274
  34.545   0.1118164062  0.76120     2505.00000 0.8577       1.422623       0.142256
  37.363   0.1118164062  0.76012     2505.50000 0.8522       1.478356       0.147824
  39.875   0.1118164062  0.75914     2506.00000 0.8462       1.538097       0.153795
  41.985   0.1118164062  0.75807     2506.50000 0.8401       1.599110       0.159894
  43.664   0.1118164062  0.75662     2507.00000 0.8342       1.657887       0.165770
  44.927   0.1118164062  0.75451     2507.50000 0.8290       1.710100       0.170990
  45.829   0.1118164062  0.75142     2508.00000 0.8250       1.750528       0.175030
  42.114   0.1118164062  0.83750     3956.50000 0.8144       1.856014       0.185599
  41.529   0.1118164062  0.84015     3957.00000 0.8219       1.780678       0.178067
  36.110   0.1118164062  0.82812     3960.00000 0.8691       1.308609       0.130860
  35.066   0.1118164062  0.82669     3960.50000 0.8757       1.243004       0.124300
 120.923   0.1164550781  0.75950     2298.50000 0.9242       0.757921       0.075791
 118.655   0.1164550781  0.76345     2299.00000 0.9177       0.822638       0.082263
 117.231   0.1164550781  0.76655     2299.50000 0.9101       0.899313       0.089931
 116.846   0.1164550781  0.76849     2300.00000 0.9023       0.976876       0.097687
 117.542   0.1164550781  0.76915     2300.50000 0.8956       1.044082       0.104405
  42.524   0.1164550781  0.79608     3956.00000 0.8122       1.878425       0.187838
  42.080   0.1164550781  0.80992     3956.50000 0.8181       1.818754       0.181873
  34.587   0.1164550781  0.79104     3960.50000 0.8728       1.271795       0.127179
  42.538   0.1210937500  0.77637     3956.00000 0.8175       1.825394       0.182536
  42.173   0.1210937500  0.78565     3956.50000 0.8226       1.774268       0.177425
  34.109   0.1210937500  0.75885     3960.50000 0.8689       1.311289       0.131128
  32.951   0.1210937500  0.75262     3961.00000 0.8751       1.249441       0.124944
  40.940   0.1210937500  0.82809     3970.00000 0.6499       3.500654       0.350064
  40.462   0.1210937500  0.81870     3970.50000 0.6277       3.723361       0.372322
  41.944   0.1257324219  0.77486     3969.50000 0.6611       3.389242       0.338922
  41.159   0.1257324219  0.76797     3970.00000 0.6304       3.696350       0.369635
  41.479   0.1350097656  0.83877     2496.00000 0.8734       1.265861       0.126575
  42.169   0.1396484375  0.81186     2496.00000 0.8687       1.312624       0.131256
  43.068   0.1396484375  0.80876     2496.50000 0.8662       1.338152       0.133800
  42.710   0.1442871094  0.78047     2496.00000 0.8639       1.361348       0.136132
  43.831   0.1442871094  0.77981     2496.50000 0.8610       1.389615       0.138951
 106.569   0.1674804688  0.78866     2350.00000 0.9264       0.736237       0.073622
 111.077   0.1674804688  0.78831     2350.50000 0.9004       0.996333       0.099629
  61.237   0.3437500000  0.75515     1536.00000 0.8798       1.201837       0.120181
  61.938   0.3483886719  0.79448     1536.00000 0.8806       1.193853       0.119382
  62.614   0.3530273438  0.79784     1536.00000 0.8813       1.187345       0.118731
  63.265   0.3576660156  0.80048     1536.00000 0.8818       1.182197       0.118216
  63.890   0.3623046875  0.80244     1536.00000 0.8822       1.178302       0.117826
  64.490   0.3669433594  0.80372     1536.00000 0.8824       1.175567       0.117551
  65.064   0.3715820312  0.80436     1536.00000 0.8826       1.173906       0.117384
  65.612   0.3762207031  0.80439     1536.00000 0.8827       1.173244       0.117317
  66.137   0.3808593750  0.82668     1536.00000 0.8827       1.173512       0.117343
  12.769   0.4921875000  0.77912     3726.00000 0.8329       1.671696       0.167147
  12.809   0.4968261719  0.77611     3726.00000 0.8309       1.691651       0.169145
  12.850   0.5014648438  0.77301     3726.00000 0.8288       1.712055       0.171187
2009  21 18  5 40 350
  36.467   0.0607910156  0.90817       11.50000 0.7762       2.238471       0.223845
  35.484   0.0607910156  0.90745       12.00000 0.7828       2.172320       0.217231
  34.485   0.0607910156  0.90582       12.50000 0.7896       2.103788       0.210379
  33.479   0.0607910156  0.90241       13.00000 0.7966       2.034369       0.203437
  32.482   0.0607910156  0.89557       13.50000 0.8035       1.965447       0.196544
  31.511   0.0607910156  0.88251       14.00000 0.8102       1.898283       0.189825
  35.813   0.0654296875  0.85387       13.50000 0.8107       1.893092       0.189305
  34.998   0.0654296875  0.84805       14.00000 0.8162       1.838066       0.183800
  34.202   0.0654296875  0.84058       14.50000 0.8217       1.783341       0.178325
  33.439   0.0654296875  0.83085       15.00000 0.8270       1.729973       0.172984
  32.728   0.0654296875  0.81818       15.50000 0.8321       1.678847       0.167866
  32.085   0.0654296875  0.80206       16.00000 0.8370       1.630713       0.163047
  68.055   0.0886230469  0.75310      237.50000 0.9175       0.824627       0.082463
  67.378   0.0886230469  0.76008      238.00000 0.9197       0.802912       0.080291
  66.273   0.0886230469  0.76272      238.50000 0.9223       0.776964       0.077694
  64.764   0.0886230469  0.75780      239.00000 0.9253       0.747380       0.074733
  62.892   0.0886230469  0.77355      239.50000 0.9285       0.714718       0.071463
  63.143   0.0932617188  0.76121      239.00000 0.9225       0.775251       0.077524
  60.121   0.0932617188  0.77173      239.50000 0.9242       0.757573       0.075753
  38.660   0.0979003906  0.82509       20.00000 0.9014       0.986187       0.098618
  40.515   0.0979003906  0.81526       20.50000 0.9014       0.986268       0.098625
  42.342   0.0979003906  0.80521       21.00000 0.9003       0.996736       0.099669
  44.032   0.0979003906  0.79489       21.50000 0.8983       1.016782       0.101669
  38.517   0.1025390625  0.81909       20.00000 0.9094       0.905537       0.090553
  41.171   0.1025390625  0.81029       20.50000 0.9094       0.905895       0.090589
  43.751   0.1025390625  0.79977       21.00000 0.9080       0.920382       0.092038
  46.059   0.1025390625  0.78913       21.50000 0.9052       0.948230       0.094820
  47.957   0.1025390625  0.77824       22.00000 0.9013       0.987570       0.098749
  41.651   0.1071777344  0.78061       20.50000 0.9180       0.819966       0.081994
  45.274   0.1071777344  0.77132       21.00000 0.9164       0.835835       0.083583
  48.413   0.1071777344  0.76222       21.50000 0.9130       0.870180       0.087018
  50.822   0.1071777344  0.75308       22.00000 0.9079       0.920623       0.092059
-106.942   0.2741699219  0.81426     4070.00000 0.6228       3.771766       0.377160
-107.085   0.2788085938  0.81866     4070.00000 0.6263       3.737272       0.373711
-109.484   0.3808593750  0.77912     4069.50000 0.6430       3.569681       0.356957
-109.553   0.3854980469  0.78458     4069.50000 0.6393       3.607207       0.360708
-109.617   0.3901367188  0.78341     4069.50000 0.6354       3.645951       0.364580
-109.673   0.3947753906  0.77938     4069.50000 0.6316       3.684536       0.368437
-109.728   0.3994140625  0.77398     4069.50000 0.6276       3.724574       0.372438
-109.774   0.4040527344  0.76809     4069.50000 0.6236       3.764093       0.376387
-153.822   0.4736328125  0.75218     3974.00000 0.8605       1.394530       0.139452
-153.662   0.4782714844  0.75352     3974.00000 0.8592       1.408002       0.140799
-153.507   0.4829101562  0.75302     3974.00000 0.8578       1.421904       0.142188
-153.358   0.4875488281  0.75062     3974.00000 0.8564       1.436207       0.143618
2009  21 19 13 35 350
 -83.786   0.3020019531  0.76307     1077.50000 0.9578       0.422155       0.042214
 -83.923   0.3066406250  0.75398     1077.50000 0.9557       0.442952       0.044294
 -84.336   0.3205566406  0.77968     1077.50000 0.9489       0.511036       0.051102
 -84.464   0.3251953125  0.78520     1077.50000 0.9464       0.535553       0.053554
 -84.583   0.3298339844  0.78341     1077.50000 0.9439       0.560952       0.056094
 -84.693   0.3344726562  0.77904     1077.50000 0.9413       0.587217       0.058720
 -69.927   0.3437500000  0.76644      176.00000 0.9916       0.084317       0.008431
   6.365   0.3483886719  0.77775      502.00000 0.8287       1.713244       0.171321
  97.204   0.3483886719  0.77617     1076.00000 0.7678       2.322552       0.232249
   6.124   0.3530273438  0.77923      502.00000 0.8281       1.719186       0.171915
  97.243   0.3530273438  0.77602     1076.00000 0.7643       2.357423       0.235735
   5.886   0.3576660156  0.78057      502.00000 0.8275       1.725327       0.172528
  97.285   0.3576660156  0.77609     1076.00000 0.7606       2.394095       0.239401
   5.652   0.3623046875  0.78176      502.00000 0.8268       1.731682       0.173163
  97.330   0.3623046875  0.77636     1076.00000 0.7568       2.432548       0.243245
  81.645   0.3669433594  0.75172      172.50000 0.8546       1.454163       0.145406
   5.421   0.3669433594  0.78280      502.00000 0.8262       1.738264       0.173820
  97.378   0.3669433594  0.77683     1076.00000 0.7527       2.472760       0.247264
  81.540   0.3715820312  0.75807      172.50000 0.8511       1.488773       0.148867
   5.195   0.3715820312  0.78370      502.00000 0.8255       1.745086       0.174502
  97.427   0.3715820312  0.77747     1076.00000 0.7485       2.514717       0.251458
  81.451   0.3762207031  0.76429      172.50000 0.8475       1.524733       0.152464
 -89.782   0.3762207031  0.85411      175.50000 0.8638       1.362224       0.136221
   4.972   0.3762207031  0.78446      502.00000 0.8248       1.752163       0.175208
  97.477   0.3762207031  0.77824     1076.00000 0.7442       2.558403       0.255824
  81.377   0.3808593750  0.85127      172.50000 0.8438       1.562027       0.156194
 -89.877   0.3808593750  0.86082      175.50000 0.8588       1.412163       0.141215
   4.754   0.3808593750  0.81768      502.00000 0.8241       1.759506       0.175942
  97.527   0.3808593750  0.77628     1076.00000 0.7396       2.603805       0.260363
  81.316   0.3854980469  0.85331      172.50000 0.8399       1.600641       0.160056
 -89.970   0.3854980469  0.86814      175.50000 0.8537       1.462758       0.146274
   4.540   0.3854980469  0.81804      502.00000 0.8233       1.767125       0.176703
  97.578   0.3854980469  0.77686     1076.00000 0.7349       2.650913       0.265071
  81.268   0.3901367188  0.85519      172.50000 0.8360       1.640560       0.164048
 -90.063   0.3901367188  0.87479      175.50000 0.8486       1.514019       0.151400
   4.330   0.3901367188  0.81822      502.00000 0.8225       1.775030       0.177492
  97.628   0.3901367188  0.77751     1076.00000 0.7301       2.699717       0.269949
  81.231   0.3947753906  0.85698      172.50000 0.8318       1.681769       0.168170
 -90.154   0.3947753906  0.88084      175.50000 0.8434       1.565953       0.156593
  97.678   0.3947753906  0.77819     1076.00000 0.7250       2.750209       0.274996
  81.205   0.3994140625  0.85870      172.50000 0.8276       1.724256       0.172419
 -90.243   0.3994140625  0.88634      175.50000 0.8381       1.618569       0.161855
  97.727   0.3994140625  0.77885     1076.00000 0.7198       2.802384       0.280210
  81.188   0.4040527344  0.86036      172.50000 0.8232       1.768007       0.176794
 -90.331   0.4040527344  0.89134      175.50000 0.8328       1.671874       0.167185
  97.775   0.4040527344  0.77948     1076.00000 0.7144       2.856233       0.285592
  81.179   0.4086914062  0.86200      172.50000 0.8187       1.813010       0.181295
 -90.417   0.4086914062  0.89588      175.50000 0.8274       1.725872       0.172585
  97.822   0.4086914062  0.78004     1076.00000 0.7089       2.911753       0.291141
  81.178   0.4133300781  0.86361      172.50000 0.8141       1.859253       0.185920
  97.867   0.4133300781  0.78052     1076.00000 0.7031       2.968940       0.296857
  81.184   0.4179687500  0.88539      172.50000 0.8093       1.906722       0.190667
  97.911   0.4179687500  0.78237     1076.00000 0.6973       3.027789       0.302739
  81.195   0.4226074219  0.88680      172.50000 0.8045       1.955406       0.195536
  97.953   0.4226074219  0.78187     1076.00000 0.6912       3.088299       0.308786
  81.212   0.4272460938  0.88826      172.50000 0.7995       2.005294       0.200525
-173.281   0.4272460938  0.75291     1977.00000 0.7862       2.137980       0.213788
  81.234   0.4318847656  0.88976      172.50000 0.7944       2.056372       0.205634
-173.291   0.4318847656  0.76065     1977.00000 0.7830       2.170209       0.217012
  81.260   0.4365234375  0.89130      172.50000 0.7891       2.108631       0.210860
-173.303   0.4365234375  0.76735     1977.00000 0.7797       2.202720       0.220264
  81.289   0.4411621094  0.89285      172.50000 0.7838       2.162058       0.216203
-173.315   0.4411621094  0.77305     1977.00000 0.7765       2.235520       0.223545
  81.322   0.4458007812  0.89443      172.50000 0.7783       2.216641       0.221662
-173.329   0.4458007812  0.77774     1977.00000 0.7731       2.268613       0.226855
  81.358   0.4504394531  0.89602      172.50000 0.7728       2.272369       0.227235
-173.344   0.4504394531  0.78142     1977.00000 0.7698       2.302005       0.230195
  81.396   0.4550781250  0.89761      172.50000 0.7671       2.329231       0.232922
-173.360   0.4550781250  0.78408     1977.00000 0.7664       2.335698       0.233565
  81.436   0.4597167969  0.89920      172.50000 0.7613       2.387214       0.238720
-173.377   0.4597167969  0.78570     1977.00000 0.7630       2.369696       0.236966
  81.478   0.4643554688  0.89718      172.50000 0.7554       2.446308       0.244630
-173.395   0.4643554688  0.78126     1977.00000 0.7596       2.404005       0.240397
  81.522   0.4689941406  0.89872      172.50000 0.7494       2.506502       0.250650
-173.414   0.4689941406  0.78046     1977.00000 0.7561       2.438625       0.243860
  81.566   0.4736328125  0.90026      172.50000 0.7432       2.567784       0.256778
-173.433   0.4736328125  0.77851     1977.00000 0.7526       2.473560       0.247354
  81.612   0.4782714844  0.90179      172.50000 0.7370       2.630141       0.263014
-173.454   0.4782714844  0.77546     1977.00000 0.7491       2.508810       0.250879
  81.658   0.4829101562  0.90330      172.50000 0.7306       2.693562       0.269356
-173.475   0.4829101562  0.77138     1977.00000 0.7456       2.544378       0.254436
  81.704   0.4875488281  0.90479      172.50000 0.7242       2.758037       0.275804
-173.497   0.4875488281  0.76646     1977.00000 0.7420       2.580266       0.258026
  81.752   0.4921875000  0.90626      172.50000 0.7176       2.823552       0.282355
-173.519   0.4921875000  0.76092     1977.00000 0.7384       2.616473       0.261647
  81.799   0.4968261719  0.90770      172.50000 0.7110       2.890098       0.289010
-173.542   0.4968261719  0.75512     1977.00000 0.7347       2.653000       0.265299
  81.846   0.5014648438  0.90910      172.50000 0.7042       2.957661       0.295766
2009  21 20 21 30 350
 -85.294   0.1396484375  0.75248     2860.50000 0.6175       3.824842       0.382468
 -84.794   0.1442871094  0.75411     2860.00000 0.6757       3.243079       0.324300
-175.995   0.3994140625  0.79148     2607.50000 0.3792       6.207938       0.620790
-175.540   0.4643554688  0.75274     1541.50000 0.0198       9.802709       0.980232
 170.459   0.4643554688  0.88939     2607.00000 0.5495       4.505237       0.450483
  35.905   0.4643554688  0.78405     3966.50000 0.8738       1.262098       0.126203
-175.328   0.4689941406  0.75570     1541.50000 0.0062      10.063223       1.006273
 170.531   0.4689941406  0.88961     2607.00000 0.5220       4.780608       0.478009
  35.807   0.4689941406  0.78921     3966.50000 0.8700       1.300004       0.129993
-175.120   0.4736328125  0.75844     1541.50000 0.0265      10.272837       1.027241
  35.717   0.4736328125  0.79390     3966.50000 0.8661       1.338679       0.133860
-174.916   0.4782714844  0.76099     1541.50000 0.0479      10.503541       1.050309
  35.635   0.4782714844  0.79816     3966.50000 0.8622       1.378112       0.137803
  12.687   0.4782714844  0.82619     4029.50000 0.6799       3.201274       0.320127
-174.717   0.4829101562  0.76335     1541.50000 0.0687      10.737871       1.073739
  35.559   0.4829101562  0.80206     3966.50000 0.8582       1.418292       0.141820
  12.581   0.4829101562  0.82765     4029.50000 0.6729       3.270911       0.327091
-174.521   0.4875488281  0.76554     1541.50000 0.0888      10.974790       1.097428
  35.490   0.4875488281  0.80561     3966.50000 0.8541       1.459209       0.145911
  12.479   0.4875488281  0.82895     4029.50000 0.6658       3.341847       0.334185
-174.329   0.4921875000  0.76757     1541.50000 0.1082      11.214019       1.121348
  35.426   0.4921875000  0.80886     3966.50000 0.8499       1.500855       0.150075
  12.379   0.4921875000  0.83012     4029.50000 0.6586       3.414068       0.341407
  35.367   0.4968261719  0.81184     3966.50000 0.8457       1.543218       0.154311
  12.284   0.4968261719  0.83115     4029.50000 0.6512       3.487557       0.348755
  35.313   0.5014648438  0.81455     3966.50000 0.8414       1.586289       0.158617
  12.191   0.5014648438  0.83205     4029.50000 0.6438       3.562300       0.356230
2009  21 21 29 25 350
  31.119   0.3762207031  0.75500     3593.50000 0.7238       2.762304       0.276203
  31.133   0.3808593750  0.85555     3593.50000 0.7174       2.826736       0.282646
  31.150   0.3854980469  0.85666     3593.50000 0.7107       2.893107       0.289283
  31.168   0.3901367188  0.85693     3593.50000 0.7039       2.961404       0.296112
  31.188   0.3947753906  0.85642     3593.50000 0.6969       3.031609       0.303133
  31.210   0.3994140625  0.85516     3593.50000 0.6897       3.103707       0.310342
  31.233   0.4040527344  0.85321     3593.50000 0.6823       3.177683       0.317739
  31.257   0.4086914062  0.85059     3593.50000 0.6747       3.253518       0.325323
  31.282   0.4133300781  0.84735     3593.50000 0.6669       3.331195       0.333090
  31.309   0.4179687500  0.84304     3593.50000 0.6590       3.410694       0.341040
-135.063   0.4504394531  0.75285     3567.50000 0.5860       4.139617       0.413961
-135.296   0.4550781250  0.75700     3567.50000 0.5749       4.250972       0.425096
-135.520   0.4597167969  0.76102     3567.50000 0.5636       4.364257       0.436425
-135.738   0.4643554688  0.77368     3567.50000 0.5521       4.479460       0.447945
-135.949   0.4689941406  0.77750     3567.50000 0.5403       4.596573       0.459656
 -38.314   0.4736328125  0.83965      209.00000 0.6741       3.259102       0.325902
-136.153   0.4736328125  0.78119     3567.50000 0.5284       4.715583       0.471557
  31.689   0.4736328125  0.75378     3597.00000 0.3466       6.534935       0.653396
 -38.381   0.4782714844  0.84503      209.00000 0.6695       3.305417       0.330533
-136.351   0.4782714844  0.78474     3567.50000 0.5164       4.836477       0.483646
 -38.445   0.4829101562  0.84934      209.00000 0.6647       3.352933       0.335284
-136.543   0.4829101562  0.78815     3567.50000 0.5041       4.959241       0.495923
 -38.505   0.4875488281  0.85250      209.00000 0.6598       3.401638       0.340155
-136.728   0.4875488281  0.79145     3567.50000 0.4916       5.083859       0.508384
 -38.563   0.4921875000  0.85441      209.00000 0.6549       3.451520       0.345143
-136.908   0.4921875000  0.79462     3567.50000 0.4790       5.210315       0.521030
 -38.619   0.4968261719  0.85497      209.00000 0.6498       3.502566       0.350247
-137.083   0.4968261719  0.79767     3567.50000 0.4661       5.338586       0.533857
 -38.672   0.5014648438  0.85408      209.00000 0.6445       3.554769       0.355467
2009  21  1  6 55 350
 -70.830   0.1350097656  0.75392     2576.50000 0.9000       0.999981       0.099990
 -76.453   0.1350097656  0.76207     2577.00000 0.8947       1.052894       0.105287
-107.134   0.1350097656  0.77246     3848.00000 0.8924       1.075678       0.107555
-112.556   0.1396484375  0.78830      845.00000 0.6894       3.105667       0.310566
-114.927   0.1396484375  0.83366      845.50000 0.7059       2.940543       0.294054
-115.183   0.1442871094  0.81609      845.50000 0.7212       2.788378       0.278838
-116.995   0.1442871094  0.86000      846.00000 0.7328       2.671755       0.267172
-117.220   0.1489257812  0.83743      846.00000 0.7471       2.529224       0.252917
-118.464   0.1535644531  0.80305      846.50000 0.7693       2.307666       0.230748
 -51.392   0.3483886719  0.76349     2236.50000 0.9177       0.822810       0.082279
 -51.623   0.3530273438  0.76216     2236.50000 0.9179       0.820838       0.082082
 -51.867   0.3576660156  0.76002     2236.50000 0.9181       0.818649       0.081863
 -52.125   0.3623046875  0.75718     2236.50000 0.9184       0.816257       0.081624
 -52.395   0.3669433594  0.75371     2236.50000 0.9186       0.813675       0.081365
-105.190   0.4040527344  0.79574     1861.50000 0.8994       1.005865       0.100578
-105.250   0.4086914062  0.80603     1861.50000 0.8964       1.036291       0.103621
-105.312   0.4133300781  0.81547     1861.50000 0.8933       1.067555       0.106748
-105.377   0.4179687500  0.83545     1861.50000 0.8900       1.099640       0.109957
-105.443   0.4226074219  0.84375     1861.50000 0.8868       1.132532       0.113246
-105.510   0.4272460938  0.85179     1861.50000 0.8834       1.166213       0.116614
-105.579   0.4318847656  0.85959     1861.50000 0.8799       1.200669       0.120060
-105.648   0.4365234375  0.86715     1861.50000 0.8764       1.235882       0.123582
-105.718   0.4411621094  0.87445     1861.50000 0.8728       1.271837       0.127178
-105.788   0.4458007812  0.88147     1861.50000 0.8692       1.308518       0.130846
-105.858   0.4504394531  0.88817     1861.50000 0.8654       1.345910       0.134586
-105.928   0.4550781250  0.89454     1861.50000 0.8616       1.383995       0.138394
-105.998   0.4597167969  0.90056     1861.50000 0.8577       1.422759       0.142271
-106.067   0.4643554688  0.89666     1861.50000 0.8538       1.462185       0.146214
-106.136   0.4689941406  0.90250     1861.50000 0.8498       1.502255       0.150221
-106.204   0.4736328125  0.90795     1861.50000 0.8457       1.542955       0.154292
2009  21 22 37 20 350
 -42.150   0.1582031250  0.76243      184.00000 0.8793       1.207356       0.120735
 -43.315   0.1628417969  0.78156      184.00000 0.8810       1.189518       0.118952
 -44.345   0.1628417969  0.77665      184.50000 0.8874       1.126454       0.112642
 -44.275   0.1674804688  0.79583      184.00000 0.8826       1.174275       0.117427
 -45.519   0.1674804688  0.78329      184.50000 0.8891       1.109031       0.110900
 -45.031   0.1721191406  0.80030      184.00000 0.8839       1.161241       0.116124
 -46.505   0.1721191406  0.79880      184.50000 0.8906       1.093574       0.109355
 -45.585   0.1767578125  0.79345      184.00000 0.8850       1.150068       0.115007
 -47.298   0.1767578125  0.79387      184.50000 0.8920       1.079647       0.107963
 -50.283   0.1767578125  0.78600      185.00000 0.9029       0.970718       0.097065
 -45.936   0.1813964844  0.77488      184.00000 0.8860       1.140434       0.114043
 -47.892   0.1813964844  0.77262      184.50000 0.8933       1.066848       0.106684
 -51.301   0.1813964844  0.76274      185.00000 0.9044       0.955984       0.095593
   8.809   0.1953125000  0.76004     3729.00000 0.9521       0.479218       0.047919
  21.930   0.2231445312  0.76340     3727.00000 0.8381       1.619604       0.161943
  17.026   0.2834472656  0.79434     2383.00000 0.8464       1.536293       0.153625
  16.884   0.2880859375  0.80230     2383.00000 0.8450       1.549659       0.154962
  16.757   0.2927246094  0.80957     2383.00000 0.8433       1.567204       0.156717
  16.644   0.2973632812  0.81634     2383.00000 0.8411       1.588697       0.158867
  16.547   0.3020019531  0.83805     2383.00000 0.8386       1.613929       0.161390
  16.466   0.3066406250  0.84258     2383.00000 0.8357       1.642713       0.164269
  16.400   0.3112792969  0.84680     2383.00000 0.8325       1.674884       0.167486
  16.350   0.3159179688  0.85069     2383.00000 0.8290       1.710291       0.171027
-153.975   0.3159179688  0.76575     2385.00000 0.6610       3.390037       0.339002
  16.314   0.3205566406  0.85420     2383.00000 0.8251       1.748799       0.174878
-154.001   0.3205566406  0.76583     2385.00000 0.6543       3.457419       0.345740
  16.293   0.3251953125  0.90784     2383.00000 0.8210       1.790287       0.179027
-154.029   0.3251953125  0.75164     2385.00000 0.6472       3.527754       0.352774
  16.285   0.3298339844  0.90734     2383.00000 0.8165       1.834644       0.183463
-154.058   0.3298339844  0.75140     2385.00000 0.6399       3.601023       0.360101
  16.289   0.3344726562  0.90619     2383.00000 0.8118       1.881770       0.188175
-154.089   0.3344726562  0.75112     2385.00000 0.6323       3.677207       0.367720
  16.305   0.3391113281  0.90420     2383.00000 0.8068       1.931577       0.193156
-154.121   0.3391113281  0.75068     2385.00000 0.6244       3.756291       0.375629
  16.331   0.3437500000  0.90110     2383.00000 0.8016       1.983979       0.198396
  16.367   0.3483886719  0.92603     2383.00000 0.7961       2.038903       0.203889
  16.411   0.3530273438  0.91823     2383.00000 0.7904       2.096279       0.209626
  16.463   0.3576660156  0.90745     2383.00000 0.7844       2.156044       0.215603
  16.522   0.3623046875  0.89293     2383.00000 0.7782       2.218143       0.221813
  16.587   0.3669433594  0.87449     2383.00000 0.7717       2.282521       0.228250
  16.658   0.3715820312  0.85373     2383.00000 0.7651       2.349132       0.234911
  16.733   0.3762207031  0.83510     2383.00000 0.7582       2.417930       0.241791
  16.812   0.3808593750  0.80868     2383.00000 0.7511       2.488877       0.248886
  16.895   0.3854980469  0.80544     2383.00000 0.7438       2.561936       0.256192
  16.981   0.3901367188  0.80786     2383.00000 0.7363       2.637073       0.263705
  17.069   0.3947753906  0.81514     2383.00000 0.7286       2.714259       0.271424
  17.159   0.3994140625  0.82603     2383.00000 0.7207       2.793466       0.279344
  17.251   0.4040527344  0.83795     2383.00000 0.7125       2.874669       0.287464
  17.344   0.4086914062  0.84920     2383.00000 0.7042       2.957846       0.295782
  17.438   0.4133300781  0.85907     2383.00000 0.6957       3.042977       0.304295
  17.532   0.4179687500  0.85455     2383.00000 0.6870       3.130042       0.313001
  17.627   0.4226074219  0.86216     2383.00000 0.6781       3.219028       0.321900
  17.722   0.4272460938  0.86840     2383.00000 0.6690       3.309915       0.330988
  17.817   0.4318847656  0.87351     2383.00000 0.6597       3.402694       0.340266
  17.911   0.4365234375  0.87765     2383.00000 0.6503       3.497348       0.349731
  18.005   0.4411621094  0.88099     2383.00000 0.6406       3.593874       0.359383
  18.099   0.4458007812  0.88364     2383.00000 0.6308       3.692254       0.369220
  18.191   0.4504394531  0.88572     2383.00000 0.6208       3.792485       0.379243
  61.388   0.4550781250  0.78903     1380.50000 0.7131       2.869712       0.286946
  18.283   0.4550781250  0.88729     2383.00000 0.6106       3.894556       0.389450
  61.471   0.4597167969  0.78705     1380.50000 0.7058       2.941975       0.294171
  18.374   0.4597167969  0.88841     2383.00000 0.6002       3.998460       0.399840
  61.552   0.4643554688  0.78385     1380.50000 0.6985       3.015446       0.301517
  28.135   0.4643554688  0.78581     2184.50000 0.7411       2.588518       0.258852
  18.464   0.4643554688  0.88058     2383.00000 0.5896       4.104191       0.410412
  61.630   0.4689941406  0.78115     1380.50000 0.6910       3.090120       0.308983
  18.552   0.4689941406  0.88109     2383.00000 0.5788       4.211740       0.421167
  61.705   0.4736328125  0.77850     1380.50000 0.6834       3.165987       0.316568
  18.640   0.4736328125  0.88122     2383.00000 0.5679       4.321108       0.432103
  61.779   0.4782714844  0.77592     1380.50000 0.6757       3.243041       0.324273
  18.726   0.4782714844  0.88101     2383.00000 0.5568       4.432284       0.443220
  61.850   0.4829101562  0.77341     1380.50000 0.6679       3.321273       0.332094
  18.811   0.4829101562  0.88046     2383.00000 0.5455       4.545263       0.454517
 138.688   0.4829101562  0.75480     3289.00000 0.8080       1.919826       0.191968
  61.919   0.4875488281  0.77098     1380.50000 0.6600       3.400672       0.340033
  18.894   0.4875488281  0.87960     2383.00000 0.5340       4.660043       0.465994
 138.729   0.4875488281  0.75941     3289.00000 0.8048       1.952500       0.195236
  61.987   0.4921875000  0.76864     1380.50000 0.6519       3.481231       0.348087
  18.976   0.4921875000  0.87844     2383.00000 0.5223       4.776616       0.477651
 138.766   0.4921875000  0.76361     3289.00000 0.8015       1.985578       0.198544
  62.053   0.4968261719  0.76641     1380.50000 0.6437       3.562937       0.356256
  19.057   0.4968261719  0.87697     2383.00000 0.5105       4.894979       0.489486
 138.799   0.4968261719  0.76741     3289.00000 0.7981       2.019051       0.201891
  62.117   0.5014648438  0.76428     1380.50000 0.6355       3.645777       0.364539
  19.137   0.5014648438  0.87522     2383.00000 0.4985       5.015127       0.501500
 138.828   0.5014648438  0.77082     3289.00000 0.7947       2.052925       0.205278
2009  21  2 14 50 350
  59.254   0.0607910156  0.79377     2437.00000 0.8385       1.615534       0.161538
  60.489   0.0607910156  0.79176     2437.50000 0.8406       1.594079       0.159396
  61.692   0.0607910156  0.78956     2438.00000 0.8440       1.559665       0.155958
  62.864   0.0607910156  0.78702     2438.50000 0.8487       1.513363       0.151330
  58.742   0.0654296875  0.81785     2437.00000 0.8491       1.509070       0.150903
  59.930   0.0654296875  0.81534     2437.50000 0.8513       1.486649       0.148662
  61.088   0.0654296875  0.81290     2438.00000 0.8547       1.452888       0.145288
  62.213   0.0654296875  0.81053     2438.50000 0.8591       1.408946       0.140894
  56.402   0.0700683594  0.82762     2436.50000 0.8555       1.445129       0.144511
  57.640   0.0700683594  0.82496     2437.00000 0.8568       1.431588       0.143158
  58.855   0.0700683594  0.82263     2437.50000 0.8593       1.406893       0.140689
  60.051   0.0700683594  0.82069     2438.00000 0.8628       1.371923       0.137192
  68.146   0.0747070312  0.75166     2424.00000 0.9277       0.722597       0.072250
  54.523   0.0747070312  0.82975     2436.50000 0.8616       1.384112       0.138411
  55.838   0.0747070312  0.82944     2437.00000 0.8634       1.366047       0.136604
  57.155   0.0747070312  0.82922     2437.50000 0.8662       1.337557       0.133754
  58.480   0.0747070312  0.82913     2438.00000 0.8700       1.299675       0.129963
  69.553   0.0793457031  0.75866     2423.50000 0.9252       0.747993       0.074791
  68.572   0.0793457031  0.76970     2424.00000 0.9302       0.698036       0.069793
  51.723   0.0793457031  0.82202     2436.50000 0.8674       1.326220       0.132622
  53.170   0.0793457031  0.82484     2437.00000 0.8698       1.302246       0.130222
  54.659   0.0793457031  0.82700     2437.50000 0.8732       1.268470       0.126839
  33.141   0.0793457031  0.77709     2627.50000 0.8949       1.051041       0.105098
