-145.242   0.5014648438  0.78896     3509.50000 0.8264       1.736132       0.173613
2009  26 20 21  8 350
-121.660   0.0422363281  0.75048     4068.50000 0.5513      22.285778       2.228468
  -3.240   0.0607910156  0.76500      215.00000 0.8753       1.247078       0.124708
  -3.696   0.0607910156  0.77546      215.50000 0.8761       1.239365       0.123934
  -3.768   0.0607910156  0.78410      216.00000 0.8772       1.227957       0.122789
   8.507   0.0654296875  0.75585      133.50000 0.9205       0.795264       0.079526
   9.825   0.0654296875  0.76359      134.00000 0.9226       0.773652       0.077365
  11.202   0.0654296875  0.76999      134.50000 0.9246       0.753960       0.075396
  12.603   0.0654296875  0.77486      135.00000 0.9263       0.736635       0.073663
  13.987   0.0654296875  0.77805      135.50000 0.9278       0.722049       0.072205
  15.306   0.0654296875  0.77935      136.00000 0.9290       0.710484       0.071047
  16.508   0.0654296875  0.77855      136.50000 0.9298       0.702128       0.070210
  17.544   0.0654296875  0.77534      137.00000 0.9303       0.697081       0.069704
  18.369   0.0654296875  0.76942      137.50000 0.9305       0.695369       0.069530
  -0.551   0.0654296875  0.79559      214.00000 0.8753       1.247203       0.124719
  -1.766   0.0654296875  0.80365      214.50000 0.8750       1.250289       0.125029
  -2.665   0.0654296875  0.81089      215.00000 0.8750       1.250139       0.125013
  -3.224   0.0654296875  0.81707      215.50000 0.8753       1.246658       0.124663
  -3.423   0.0654296875  0.82195      216.00000 0.8760       1.239924       0.123984
  -0.008   0.0700683594  0.75247      129.50000 0.9018       0.982165       0.098214
   0.403   0.0700683594  0.76374      130.00000 0.9036       0.964006       0.096399
   0.902   0.0700683594  0.77545      130.50000 0.9056       0.943518       0.094350
   1.496   0.0700683594  0.78723      131.00000 0.9079       0.921144       0.092113
   2.191   0.0700683594  0.79870      131.50000 0.9103       0.897369       0.089736
   2.993   0.0700683594  0.80945      132.00000 0.9127       0.872715       0.087271
   3.904   0.0700683594  0.81917      132.50000 0.9152       0.847726       0.084772
   4.924   0.0700683594  0.82758      133.00000 0.9177       0.822968       0.082296
   6.045   0.0700683594  0.83450      133.50000 0.9201       0.799000       0.079900
   7.255   0.0700683594  0.83985      134.00000 0.9224       0.776370       0.077637
   8.533   0.0700683594  0.84358      134.50000 0.9244       0.755590       0.075559
   9.851   0.0700683594  0.84572      135.00000 0.9263       0.737124       0.073712
  11.172   0.0700683594  0.84632      135.50000 0.9279       0.721367       0.072136
  12.452   0.0700683594  0.84543      136.00000 0.9291       0.708633       0.070862
  13.643   0.0700683594  0.84310      136.50000 0.9301       0.699149       0.069912
  14.696   0.0700683594  0.83935      137.00000 0.9307       0.693052       0.069300
  15.565   0.0700683594  0.83415      137.50000 0.9310       0.690396       0.069032
   3.183   0.0700683594  0.81878      213.00000 0.8772       1.228390       0.122834
   1.297   0.0700683594  0.82332      213.50000 0.8760       1.240138       0.124012
  -0.350   0.0700683594  0.82610      214.00000 0.8750       1.249866       0.124986
  -1.724   0.0700683594  0.82726      214.50000 0.8743       1.257178       0.125718
  -2.794   0.0700683594  0.82709      215.00000 0.8738       1.261721       0.126170
  -3.535   0.0700683594  0.82599      215.50000 0.8737       1.263232       0.126317
  -3.925   0.0700683594  0.82438      216.00000 0.8739       1.261584       0.126146
  -2.663   0.0747070312  0.75056      125.50000 0.8972       1.028269       0.102820
  -2.615   0.0747070312  0.75918      126.00000 0.8964       1.036003       0.103595
  -2.532   0.0747070312  0.76813      126.50000 0.8960       1.040233       0.104019
  -2.414   0.0747070312  0.77734      127.00000 0.8959       1.040865       0.104083
  -2.258   0.0747070312  0.78676      127.50000 0.8962       1.037879       0.103785
  -2.061   0.0747070312  0.79634      128.00000 0.8969       1.031331       0.103131
  -1.822   0.0747070312  0.80603      128.50000 0.8979       1.021347       0.102133
  -1.534   0.0747070312  0.81578      129.00000 0.8992       1.008118       0.100810
  -1.194   0.0747070312  0.82555      129.50000 0.9008       0.991897       0.099188
  -0.794   0.0747070312  0.83525      130.00000 0.9027       0.972995       0.097298
  -0.326   0.0747070312  0.84475      130.50000 0.9048       0.951777       0.095177
   0.215   0.0747070312  0.85390      131.00000 0.9071       0.928655       0.092865
   0.839   0.0747070312  0.86248      131.50000 0.9096       0.904085       0.090408
   1.552   0.0747070312  0.87029      132.00000 0.9121       0.878561       0.087856
   2.360   0.0747070312  0.87712      132.50000 0.9147       0.852602       0.085260
   3.266   0.0747070312  0.88280      133.00000 0.9173       0.826753       0.082675
   4.270   0.0747070312  0.88722      133.50000 0.9198       0.801564       0.080156
   5.366   0.0747070312  0.89034      134.00000 0.9222       0.777584       0.077758
   6.541   0.0747070312  0.89215      134.50000 0.9245       0.755341       0.075534
   7.775   0.0747070312  0.89269      135.00000 0.9265       0.735326       0.073532
   9.038   0.0747070312  0.89201      135.50000 0.9282       0.717976       0.071797
  10.292   0.0747070312  0.89018      136.00000 0.9296       0.703655       0.070364
  11.492   0.0747070312  0.88725      136.50000 0.9307       0.692643       0.069261
  12.591   0.0747070312  0.88329      137.00000 0.9315       0.685126       0.068507
  13.538   0.0747070312  0.87833      137.50000 0.9319       0.681201       0.068112
   8.423   0.0747070312  0.81632      212.00000 0.8811       1.189462       0.118940
   5.997   0.0747070312  0.82190      212.50000 0.8793       1.206743       0.120670
   3.701   0.0747070312  0.82528      213.00000 0.8776       1.223665       0.122365
   1.583   0.0747070312  0.82640      213.50000 0.8760       1.239915       0.123991
  -0.313   0.0747070312  0.82548      214.00000 0.8745       1.255061       0.125506
  -1.950   0.0747070312  0.82293      214.50000 0.8731       1.268582       0.126856
  -3.295   0.0747070312  0.81920      215.00000 0.8720       1.279914       0.127985
  -4.318   0.0747070312  0.81478      215.50000 0.8712       1.288502       0.128838
  -4.490   0.0793457031  0.76625      124.50000 0.8979       1.020757       0.102066
  -4.380   0.0793457031  0.77800      125.00000 0.8967       1.033162       0.103309
  -4.216   0.0793457031  0.79018      125.50000 0.8957       1.042618       0.104257
  -4.007   0.0793457031  0.80260      126.00000 0.8951       1.048933       0.104890
  -3.760   0.0793457031  0.81504      126.50000 0.8948       1.051974       0.105195
  -3.482   0.0793457031  0.82725      127.00000 0.8948       1.051659       0.105164
  -3.178   0.0793457031  0.83895      127.50000 0.8952       1.047959       0.104795
  -2.852   0.0793457031  0.84989      128.00000 0.8959       1.040898       0.104089
  -2.505   0.0793457031  0.85986      128.50000 0.8969       1.030554       0.103055
  -2.138   0.0793457031  0.86874      129.00000 0.8983       1.017062       0.101706
  -1.747   0.0793457031  0.87651      129.50000 0.8999       1.000613       0.100061
  -1.329   0.0793457031  0.88325      130.00000 0.9019       0.981460       0.098145
  -0.878   0.0793457031  0.88915      130.50000 0.9040       0.959906       0.095990
  -0.385   0.0793457031  0.89439      131.00000 0.9064       0.936317       0.093631
   0.156   0.0793457031  0.89916      131.50000 0.9089       0.911100       0.091109
   0.757   0.0793457031  0.90354      132.00000 0.9115       0.884715       0.088471
   1.425   0.0793457031  0.90750      132.50000 0.9142       0.857659       0.085765
   2.171   0.0793457031  0.91093      133.00000 0.9170       0.830465       0.083046
   3.002   0.0793457031  0.91367      133.50000 0.9196       0.803690       0.080369
   3.923   0.0793457031  0.91559      134.00000 0.9222       0.777910       0.077791
   4.935   0.0793457031  0.91659      134.50000 0.9246       0.753700       0.075370
   6.031   0.0793457031  0.91662      135.00000 0.9268       0.731620       0.073162
   7.195   0.0793457031  0.91568      135.50000 0.9288       0.712191       0.071218
   8.402   0.0793457031  0.91378      136.00000 0.9304       0.695873       0.069586
   9.612   0.0793457031  0.91096      136.50000 0.9317       0.683034       0.068300
  10.780   0.0793457031  0.90725      137.00000 0.9326       0.673938       0.067388
  11.849   0.0793457031  0.90269      137.50000 0.9331       0.668725       0.066864
  17.777   0.0793457031  0.78530      210.50000 0.8883       1.117188       0.111710
  15.154   0.0793457031  0.78729      211.00000 0.8865       1.135222       0.113515
  12.458   0.0793457031  0.78811      211.50000 0.8846       1.153641       0.115359
   9.746   0.0793457031  0.78813      212.00000 0.8827       1.172811       0.117278
   7.075   0.0793457031  0.78780      212.50000 0.8807       1.192969       0.119296
   4.501   0.0793457031  0.78747      213.00000 0.8786       1.214169       0.121417
   2.073   0.0793457031  0.78725      213.50000 0.8764       1.236264       0.123626
  -0.159   0.0793457031  0.78702      214.00000 0.8741       1.258877       0.125885
  -2.155   0.0793457031  0.78646      214.50000 0.8719       1.281404       0.128132
  -3.877   0.0793457031  0.78520      215.00000 0.8697       1.303014       0.130286
  -6.209   0.0839843750  0.81692      125.00000 0.8956       1.043620       0.104357
  -5.804   0.0839843750  0.83149      125.50000 0.8949       1.050738       0.105071
  -5.325   0.0839843750  0.84573      126.00000 0.8945       1.055396       0.105538
  -4.799   0.0839843750  0.85928      126.50000 0.8943       1.057497       0.105749
  -4.249   0.0839843750  0.87180      127.00000 0.8943       1.056907       0.105690
  -3.695   0.0839843750  0.88297      127.50000 0.8947       1.053476       0.105347
  -3.150   0.0839843750  0.89256      128.00000 0.8953       1.047066       0.104706
  -2.624   0.0839843750  0.90046      128.50000 0.8962       1.037584       0.103758
  -2.120   0.0839843750  0.90671      129.00000 0.8975       1.024996       0.102499
  -1.637   0.0839843750  0.91146      129.50000 0.8991       1.009349       0.100935
  -1.175   0.0839843750  0.91494      130.00000 0.9009       0.990767       0.099076
  -0.727   0.0839843750  0.91746      130.50000 0.9031       0.969458       0.096945
  -0.287   0.0839843750  0.91934      131.00000 0.9054       0.945708       0.094570
   0.153   0.0839843750  0.92091      131.50000 0.9080       0.919873       0.091987
   0.603   0.0839843750  0.92244      132.00000 0.9108       0.892381       0.089237
   1.074   0.0839843750  0.92410      132.50000 0.9136       0.863721       0.086371
   1.580   0.0839843750  0.92592      133.00000 0.9166       0.834447       0.083444
   2.139   0.0839843750  0.92773      133.50000 0.9195       0.805172       0.080517
   2.771   0.0839843750  0.92927      134.00000 0.9223       0.776560       0.077656
   3.499   0.0839843750  0.93027      134.50000 0.9251       0.749320       0.074932
   4.342   0.0839843750  0.93050      135.00000 0.9276       0.724181       0.072418
   5.313   0.0839843750  0.92988      135.50000 0.9298       0.701864       0.070186
   6.414   0.0839843750  0.92838      136.00000 0.9317       0.683033       0.068302
   7.623   0.0839843750  0.92601      136.50000 0.9332       0.668239       0.066821
   8.897   0.0839843750  0.92283      137.00000 0.9342       0.657873       0.065782
  10.172   0.0839843750  0.91888      137.50000 0.9348       0.652114       0.065203
  22.593   0.0839843750  0.76884      210.00000 0.8923       1.077300       0.107722
  20.027   0.0839843750  0.76399      210.50000 0.8906       1.094085       0.109402
  17.295   0.0839843750  0.75747      211.00000 0.8889       1.110899       0.111086
  14.449   0.0839843750  0.75025      211.50000 0.8871       1.128562       0.112854
  -7.568   0.0886230469  0.87289      125.50000 0.8951       1.048864       0.104885
  -6.653   0.0886230469  0.88487      126.00000 0.8948       1.051848       0.105185
  -5.681   0.0886230469  0.89508      126.50000 0.8946       1.054003       0.105400
  -4.712   0.0886230469  0.90349      127.00000 0.8945       1.054864       0.105486
  -3.789   0.0886230469  0.91024      127.50000 0.8946       1.053834       0.105383
  -2.937   0.0886230469  0.91559      128.00000 0.8950       1.050317       0.105031
  -2.169   0.0886230469  0.91977      128.50000 0.8956       1.043811       0.104381
  -1.487   0.0886230469  0.92302      129.00000 0.8966       1.033961       0.103396
  -0.886   0.0886230469  0.92551      129.50000 0.8979       1.020575       0.102058
  -0.360   0.0886230469  0.92739      130.00000 0.8996       1.003611       0.100361
   0.096   0.0886230469  0.92875      130.50000 0.9017       0.983162       0.098316
   0.490   0.0886230469  0.92971      131.00000 0.9041       0.959434       0.095943
   0.825   0.0886230469  0.93040      131.50000 0.9067       0.932730       0.093272
   1.105   0.0886230469  0.93096      132.00000 0.9097       0.903439       0.090343
   1.335   0.0886230469  0.93158      132.50000 0.9128       0.872047       0.087203
   1.524   0.0886230469  0.93243      133.00000 0.9161       0.839145       0.083913
   1.690   0.0886230469  0.93360      133.50000 0.9195       0.805450       0.080544
   1.866   0.0886230469  0.93501      134.00000 0.9228       0.771829       0.077182
   2.103   0.0886230469  0.93631      134.50000 0.9261       0.739297       0.073929
   2.472   0.0886230469  0.93700      135.00000 0.9291       0.708998       0.070900
   3.052   0.0886230469  0.93665      135.50000 0.9318       0.682135       0.068213
   3.916   0.0886230469  0.93511      136.00000 0.9340       0.659865       0.065986
   5.095   0.0886230469  0.93253      136.50000 0.9357       0.643151       0.064313
   6.561   0.0886230469  0.92913      137.00000 0.9367       0.632618       0.063257
  -9.655   0.0932617188  0.89378      125.50000 0.8968       1.031788       0.103179
  -8.032   0.0932617188  0.90074      126.00000 0.8966       1.034068       0.103406
  -6.375   0.0932617188  0.90596      126.50000 0.8961       1.038970       0.103896
  -4.812   0.0932617188  0.90991      127.00000 0.8955       1.044871       0.104485
  -3.415   0.0932617188  0.91300      127.50000 0.8950       1.049986       0.104997
  -2.207   0.0932617188  0.91552      128.00000 0.8947       1.052756       0.105274
  -1.184   0.0932617188  0.91768      128.50000 0.8948       1.052020       0.105201
  -0.328   0.0932617188  0.91960      129.00000 0.8953       1.047041       0.104704
   0.386   0.0932617188  0.92134      129.50000 0.8963       1.037427       0.103743
   0.975   0.0932617188  0.92294      130.00000 0.8977       1.023052       0.102305
   1.456   0.0932617188  0.92442      130.50000 0.8996       1.003970       0.100397
   1.833   0.0932617188  0.92576      131.00000 0.9020       0.980346       0.098034
   2.104   0.0932617188  0.92696      131.50000 0.9048       0.952417       0.095240
   2.257   0.0932617188  0.92803      132.00000 0.9080       0.920477       0.092045
   2.274   0.0932617188  0.92900      132.50000 0.9115       0.884889       0.088486
   2.133   0.0932617188  0.92994      133.00000 0.9154       0.846156       0.084612
   1.819   0.0932617188  0.93096      133.50000 0.9195       0.805013       0.080498
   1.343   0.0932617188  0.93213      134.00000 0.9237       0.762566       0.076254
   0.765   0.0932617188  0.93334      134.50000 0.9280       0.720413       0.072039
   0.226   0.0932617188  0.93397      135.00000 0.9319       0.680661       0.068065
  -0.041   0.0932617188  0.93288      135.50000 0.9354       0.645754       0.064575
   0.248   0.0932617188  0.92908      136.00000 0.9382       0.618109       0.061811
   1.313   0.0932617188  0.92278      136.50000 0.9400       0.599665       0.059965
   3.183   0.0932617188  0.91539      137.00000 0.9409       0.591477       0.059143
  -9.432   0.0979003906  0.89383      126.00000 0.9002       0.998170       0.099813
  -6.751   0.0979003906  0.89486      126.50000 0.8988       1.011613       0.101155
  -4.424   0.0979003906  0.89589      127.00000 0.8971       1.028702       0.102863
  -2.515   0.0979003906  0.89703      127.50000 0.8955       1.045196       0.104513
  -0.991   0.0979003906  0.89832      128.00000 0.8942       1.058117       0.105807
   0.217   0.0979003906  0.89976      128.50000 0.8934       1.065721       0.106569
   1.181   0.0979003906  0.90139      129.00000 0.8933       1.067170       0.106715
   1.958   0.0979003906  0.90323      129.50000 0.8938       1.062209       0.106220
   2.593   0.0979003906  0.90527      130.00000 0.8949       1.050904       0.105090
   3.111   0.0979003906  0.90744      130.50000 0.8967       1.033461       0.103346
   3.522   0.0979003906  0.90965      131.00000 0.8990       1.010104       0.101009
   3.816   0.0979003906  0.91173      131.50000 0.9019       0.980990       0.098097
   3.964   0.0979003906  0.91348      132.00000 0.9054       0.946177       0.094614
   3.912   0.0979003906  0.91477      132.50000 0.9094       0.905622       0.090556
   3.577   0.0979003906  0.91554      133.00000 0.9141       0.859276       0.085920
   2.851   0.0979003906  0.91590      133.50000 0.9193       0.807325       0.080724
   1.615   0.0979003906  0.91609      134.00000 0.9249       0.750643       0.075056
  -0.203   0.0979003906  0.91636      134.50000 0.9309       0.691454       0.069139
  -2.497   0.0979003906  0.91678      135.00000 0.9366       0.633907       0.063386
  -4.778   0.0979003906  0.91653      135.50000 0.9416       0.583804       0.058379
  -6.092   0.0979003906  0.91286      136.00000 0.9453       0.546988       0.054699
  -5.424   0.0979003906  0.90136      136.50000 0.9473       0.527473       0.052747
  -2.497   0.0979003906  0.88082      137.00000 0.9473       0.526806       0.052676
  -1.065   0.1025390625  0.84724      127.50000 0.8955       1.045050       0.104491
   0.610   0.1025390625  0.84842      128.00000 0.8929       1.070904       0.107080
   1.851   0.1025390625  0.85012      128.50000 0.8912       1.087842       0.108778
   2.806   0.1025390625  0.85230      129.00000 0.8904       1.095752       0.109572
   3.573   0.1025390625  0.85495      129.50000 0.8905       1.095108       0.109510
   4.221   0.1025390625  0.85795      130.00000 0.8913       1.086561       0.108656
   4.785   0.1025390625  0.86102      130.50000 0.8929       1.070716       0.107071
   5.282   0.1025390625  0.86377      131.00000 0.8952       1.047989       0.104798
   5.702   0.1025390625  0.86584      131.50000 0.8982       1.018503       0.101847
   6.008   0.1025390625  0.86702      132.00000 0.9018       0.981989       0.098193
   6.121   0.1025390625  0.86733      132.50000 0.9062       0.937692       0.093760
   5.904   0.1025390625  0.86694      133.00000 0.9116       0.884330       0.088421
 -19.770   0.1025390625  0.86505      136.00000 0.9562       0.438375       0.043836
 -20.523   0.1025390625  0.86269      136.50000 0.9578       0.421633       0.042163
 -13.767   0.1025390625  0.85070      137.00000 0.9564       0.436203       0.043614
  35.559   0.1071777344  0.76483     1619.00000 0.6667       3.333489       0.333349
  -2.199   0.1071777344  0.75927     1898.50000 0.8756       1.243941       0.124388
  -0.390   0.1071777344  0.76181     1899.00000 0.8590       1.410346       0.141031
  34.644   0.1118164062  0.77360     1619.00000 0.6945       3.055009       0.305501
  48.387   0.1118164062  0.75741     1628.00000 0.8355       1.644803       0.164461
  47.938   0.1118164062  0.76415     1628.50000 0.8387       1.613685       0.161347
  -0.918   0.1118164062  0.84519     1899.00000 0.8461       1.538752       0.153863
   1.195   0.1118164062  0.84745     1899.50000 0.8275       1.724942       0.172485
   3.208   0.1118164062  0.85265     1900.00000 0.8082       1.918563       0.191848
  33.724   0.1164550781  0.78858     1619.00000 0.7125       2.875309       0.287528
  33.249   0.1164550781  0.80392     1619.50000 0.7163       2.836778       0.283673
  47.985   0.1164550781  0.75484     1628.00000 0.8354       1.646092       0.164590
  47.602   0.1164550781  0.75742     1628.50000 0.8388       1.612676       0.161248
  47.237   0.1164550781  0.75777     1629.00000 0.8439       1.560721       0.156053
  46.865   0.1164550781  0.75808     1629.50000 0.8506       1.493993       0.149381
  46.428   0.1164550781  0.75800     1630.00000 0.8581       1.418972       0.141880
  45.826   0.1164550781  0.75590     1630.50000 0.8655       1.344847       0.134467
  44.930   0.1164550781  0.75001     1631.00000 0.8717       1.283306       0.128314
   3.303   0.1164550781  0.86892     1900.00000 0.7947       2.053308       0.205308
   5.279   0.1164550781  0.87462     1900.50000 0.7740       2.260452       0.226024
  32.644   0.1210937500  0.79607     1619.50000 0.7263       2.737010       0.273685
 -13.977   0.1210937500  0.75809     1908.50000 0.7189       2.811454       0.281135
 -13.464   0.1210937500  0.75941     1909.00000 0.7370       2.629804       0.262971
 -12.141   0.1210937500  0.76134     1909.50000 0.7565       2.435465       0.243532
  10.986   0.1396484375  0.78482      131.50000 0.8775       1.224676       0.122467
  13.369   0.1396484375  0.78866      132.00000 0.8765       1.234836       0.123483
  16.293   0.1396484375  0.79544      132.50000 0.8731       1.269239       0.126924
  19.677   0.1396484375  0.79573      133.00000 0.8661       1.338643       0.133864
  23.359   0.1396484375  0.79712      133.50000 0.8539       1.461152       0.146114
  10.548   0.1442871094  0.82593      131.50000 0.8790       1.210150       0.121013
  13.069   0.1442871094  0.82027      132.00000 0.8776       1.223581       0.122357
  16.137   0.1442871094  0.81861      132.50000 0.8735       1.265270       0.126526
  19.617   0.1442871094  0.82245      133.00000 0.8653       1.347414       0.134740
  23.268   0.1442871094  0.82146      133.50000 0.8510       1.490064       0.149002
   5.599   0.1489257812  0.77019      129.50000 0.8697       1.303421       0.130336
  15.850   0.1489257812  0.83475      132.50000 0.8749       1.250831       0.125080
  19.411   0.1489257812  0.82658      133.00000 0.8658       1.341987       0.134195
  23.018   0.1489257812  0.82753      133.50000 0.8502       1.498127       0.149803
   4.862   0.1535644531  0.78483      129.50000 0.8708       1.292229       0.129217
  48.424   0.1535644531  0.78484      446.50000 0.9074       0.925898       0.092586
  48.044   0.1535644531  0.79164      447.00000 0.8916       1.084495       0.108445
  47.682   0.1535644531  0.78743      447.50000 0.8716       1.284166       0.128412
  47.116   0.1535644531  0.77410      448.00000 0.8488       1.511893       0.151187
  46.254   0.1535644531  0.75341      448.50000 0.8253       1.746733       0.174673
   4.491   0.1582031250  0.76896      129.00000 0.8653       1.346787       0.134673
   4.064   0.1582031250  0.80769      129.50000 0.8722       1.277884       0.127782
   4.209   0.1582031250  0.84226      130.00000 0.8781       1.219109       0.121904
  48.064   0.1582031250  0.78621      447.00000 0.8914       1.086148       0.108607
  47.541   0.1582031250  0.77224      447.50000 0.8707       1.293424       0.129335
  46.809   0.1582031250  0.75507      448.00000 0.8470       1.530350       0.153030
   4.759   0.1628417969  0.75981      128.50000 0.8575       1.424892       0.142486
   3.711   0.1628417969  0.80066      129.00000 0.8662       1.337842       0.133780
   3.220   0.1628417969  0.83676      129.50000 0.8739       1.261201       0.126114
   3.325   0.1628417969  0.86160      130.00000 0.8804       1.196169       0.119609
  66.737   0.1628417969  0.76660      442.50000 0.9062       0.938190       0.093816
   2.898   0.1674804688  0.78416      129.00000 0.8673       1.327111       0.132707
   2.343   0.1674804688  0.82292      129.50000 0.8757       1.242851       0.124279
   2.404   0.1674804688  0.85226      130.00000 0.8828       1.171626       0.117154
  68.315   0.1674804688  0.77391      442.00000 0.9074       0.925645       0.092560
  66.875   0.1674804688  0.79159      442.50000 0.9105       0.894787       0.089475
   3.255   0.1721191406  0.78115      128.50000 0.8579       1.420578       0.142057
   2.064   0.1721191406  0.82427      129.00000 0.8685       1.315148       0.131511
   1.443   0.1721191406  0.85751      129.50000 0.8777       1.223368       0.122331
   1.455   0.1721191406  0.86737      130.00000 0.8854       1.146033       0.114594
  67.077   0.1721191406  0.76509      442.50000 0.9144       0.855903       0.085587
   2.479   0.1767578125  0.82406      128.50000 0.8583       1.416932       0.141693
   1.217   0.1767578125  0.86736      129.00000 0.8698       1.302374       0.130235
   0.527   0.1767578125  0.88311      129.50000 0.8797       1.203177       0.120312
   0.484   0.1767578125  0.87320      130.00000 0.8880       1.119834       0.111974
  46.085   0.1767578125  0.76660     1628.00000 0.8619       1.381166       0.138115
  45.140   0.1767578125  0.76165     1628.50000 0.8612       1.387918       0.138790
   0.366   0.1813964844  0.85311      129.00000 0.8711       1.289104       0.128908
  -0.399   0.1813964844  0.87569      129.50000 0.8817       1.182614       0.118256
  -0.504   0.1813964844  0.86385      130.00000 0.8907       1.093391       0.109329
  47.161   0.1813964844  0.75715     1627.50000 0.8674       1.325671       0.132566
  45.627   0.1813964844  0.75912     1628.00000 0.8651       1.349029       0.134902
  -1.328   0.1860351562  0.88529      129.50000 0.8838       1.161955       0.116190
  -1.507   0.1860351562  0.86807      130.00000 0.8933       1.067008       0.106691
  46.746   0.1860351562  0.78838     1627.50000 0.8717       1.283047       0.128304
  45.120   0.1860351562  0.79327     1628.00000 0.8685       1.315457       0.131545
  -2.259   0.1906738281  0.87833      129.50000 0.8859       1.141427       0.114138
  -2.521   0.1906738281  0.85953      130.00000 0.8959       1.040941       0.104084
  46.276   0.1906738281  0.77724     1627.50000 0.8761       1.239413       0.123941
  44.571   0.1906738281  0.78370     1628.00000 0.8720       1.280436       0.128043
  -3.188   0.1953125000  0.87999      129.50000 0.8879       1.121228       0.112118
  -3.547   0.1953125000  0.86881      130.00000 0.8985       1.015409       0.101531
  45.757   0.1953125000  0.80132     1627.50000 0.8805       1.195204       0.119520
  43.985   0.1953125000  0.81170     1628.00000 0.8756       1.244033       0.124403
  47.034   0.1953125000  0.75925     1631.00000 0.8632       1.367872       0.136779
  -4.584   0.1999511719  0.86362      130.00000 0.9009       0.990602       0.099050
  45.194   0.1999511719  0.78782     1627.50000 0.8849       1.150880       0.115088
  47.508   0.1999511719  0.75536     1631.00000 0.8590       1.410510       0.141042
  -5.632   0.2045898438  0.87144      130.00000 0.9033       0.966686       0.096659
  44.596   0.2045898438  0.80463     1627.50000 0.8893       1.106900       0.110690
  -6.693   0.2092285156  0.86689      130.00000 0.9056       0.943802       0.094371
  43.969   0.2092285156  0.78865     1627.50000 0.8936       1.063703       0.106370
-141.615   0.2138671875  0.75132      375.50000 0.8421       1.578822       0.157878
-141.173   0.2138671875  0.79653      376.00000 0.8392       1.608379       0.160838
-141.424   0.2138671875  0.82515      376.50000 0.8358       1.642031       0.164201
-142.107   0.2138671875  0.77314      377.00000 0.8319       1.680687       0.168067
  43.322   0.2138671875  0.79952     1627.50000 0.8978       1.021685       0.102169
-141.772   0.2185058594  0.75140      375.50000 0.8429       1.570663       0.157064
-141.203   0.2185058594  0.79666      376.00000 0.8395       1.604573       0.160456
-141.317   0.2185058594  0.82436      376.50000 0.8358       1.642443       0.164239
-141.886   0.2185058594  0.77346      377.00000 0.8315       1.684574       0.168454
  42.664   0.2185058594  0.78065     1627.50000 0.9019       0.981184       0.098118
-141.937   0.2231445312  0.80120      375.50000 0.8437       1.562671       0.156266
-141.225   0.2231445312  0.82761      376.00000 0.8399       1.601279       0.160125
-141.186   0.2231445312  0.83949      376.50000 0.8357       1.643531       0.164344
-141.633   0.2231445312  0.84519      377.00000 0.8311       1.689008       0.168895
-142.317   0.2231445312  0.77637      377.50000 0.8260       1.739997       0.174000
 -55.482   0.2231445312  0.75341     1603.00000 0.8752       1.248446       0.124837
  42.004   0.2231445312  0.78520     1627.50000 0.9058       0.942472       0.094247
-142.112   0.2277832031  0.79343      375.50000 0.8445       1.555030       0.155503
-141.239   0.2277832031  0.82450      376.00000 0.8401       1.598674       0.159861
-141.029   0.2277832031  0.83927      376.50000 0.8355       1.645448       0.164531
-141.345   0.2277832031  0.84605      377.00000 0.8306       1.694081       0.169399
-141.990   0.2277832031  0.77735      377.50000 0.8253       1.746596       0.174659
 -54.157   0.2277832031  0.75489     1603.00000 0.8779       1.221249       0.122118
  41.350   0.2277832031  0.76152     1627.50000 0.9094       0.905757       0.090576
-142.298   0.2324218750  0.78528      375.50000 0.8452       1.547893       0.154789
-141.245   0.2324218750  0.82130      376.00000 0.8403       1.596900       0.159679
-140.843   0.2324218750  0.83889      376.50000 0.8352       1.648319       0.164811
-141.019   0.2324218750  0.84647      377.00000 0.8300       1.699859       0.169972
-141.635   0.2324218750  0.77797      377.50000 0.8247       1.753303       0.175330
 -52.878   0.2324218750  0.75423     1603.00000 0.8804       1.195823       0.119576
-144.455   0.2370605469  0.78576      375.00000 0.8506       1.494561       0.149447
-142.494   0.2370605469  0.82702      375.50000 0.8459       1.541383       0.154137
-141.240   0.2370605469  0.84456      376.00000 0.8404       1.596077       0.159591
-140.656   0.2370605469  0.84469      377.00000 0.8294       1.706390       0.170621
-141.251   0.2370605469  0.84522      377.50000 0.8240       1.760080       0.176007
-142.102   0.2370605469  0.76850      378.00000 0.8180       1.820182       0.182001
  74.445   0.2370605469  0.78337      500.50000 0.7876       2.124307       0.212406
 -54.161   0.2370605469  0.77812     1603.50000 0.8941       1.058773       0.105875
-144.816   0.2416992188  0.77747      375.00000 0.8517       1.483083       0.148302
-142.701   0.2416992188  0.82264      375.50000 0.8464       1.535600       0.153557
-140.837   0.2416992188  0.84477      377.50000 0.8233       1.766883       0.176687
-141.846   0.2416992188  0.76829      378.00000 0.8175       1.825114       0.182493
  74.408   0.2416992188  0.78726      500.50000 0.7909       2.091728       0.209149
 -52.980   0.2416992188  0.77419     1603.50000 0.8967       1.032615       0.103259
-145.199   0.2463378906  0.76953      375.00000 0.8528       1.472089       0.147204
-142.917   0.2463378906  0.81802      375.50000 0.8469       1.530620       0.153055
-140.396   0.2463378906  0.84381      377.50000 0.8226       1.773659       0.177364
-141.585   0.2463378906  0.76755      378.00000 0.8171       1.829150       0.182895
  74.358   0.2463378906  0.78852      500.50000 0.7938       2.062017       0.206179
 -51.839   0.2463378906  0.76767     1603.50000 0.8992       1.007926       0.100790
-145.602   0.2509765625  0.82468      375.00000 0.8538       1.461655       0.146163
-143.142   0.2509765625  0.84736      375.50000 0.8474       1.526504       0.152639
-139.928   0.2509765625  0.83581      377.50000 0.8220       1.780361       0.178033
  74.294   0.2509765625  0.78197      500.50000 0.7965       2.035200       0.203498
 -50.735   0.2509765625  0.83160     1603.50000 0.9015       0.984644       0.098462
-146.023   0.2556152344  0.81897      375.00000 0.8548       1.451840       0.145183
-143.374   0.2556152344  0.84363      375.50000 0.8477       1.523297       0.152313
-139.438   0.2556152344  0.83381      377.50000 0.8213       1.786930       0.178690
  74.219   0.2556152344  0.77385      500.50000 0.7989       2.011253       0.201104
 -49.668   0.2556152344  0.81672     1603.50000 0.9037       0.962704       0.096268
-146.462   0.2602539062  0.81272      375.00000 0.8557       1.442693       0.144269
-138.928   0.2602539062  0.83133      377.50000 0.8207       1.793311       0.179328
  74.135   0.2602539062  0.75254      500.50000 0.8010       1.990119       0.198992
 -48.639   0.2602539062  0.79870     1603.50000 0.9058       0.942039       0.094201
-146.916   0.2648925781  0.85039      375.00000 0.8566       1.434251       0.143425
-138.402   0.2648925781  0.82094      377.50000 0.8201       1.799450       0.179941
 -47.646   0.2648925781  0.77862     1603.50000 0.9077       0.922582       0.092256
-147.382   0.2695312500  0.84450      375.00000 0.8573       1.426538       0.142654
-137.867   0.2695312500  0.81684      377.50000 0.8195       1.805292       0.180525
 -46.688   0.2695312500  0.75208     1603.50000 0.9096       0.904267       0.090424
-147.857   0.2741699219  0.83760      375.00000 0.8580       1.419574       0.141957
-137.325   0.2741699219  0.81222      377.50000 0.8189       1.810782       0.181074
-148.338   0.2788085938  0.82954      375.00000 0.8587       1.413368       0.141335
-136.783   0.2788085938  0.80705      377.50000 0.8184       1.815868       0.181583
-148.822   0.2834472656  0.82933      375.00000 0.8592       1.407926       0.140789
-136.245   0.2834472656  0.79340      377.50000 0.8180       1.820503       0.182046
-149.305   0.2880859375  0.81762      375.00000 0.8597       1.403246       0.140319
-135.715   0.2880859375  0.78658      377.50000 0.8175       1.824643       0.182461
-149.783   0.2927246094  0.80448      375.00000 0.8601       1.399319       0.139923
-135.198   0.2927246094  0.77922      377.50000 0.8172       1.828248       0.182821
-134.697   0.2973632812  0.77133      377.50000 0.8169       1.831289       0.183126
-134.217   0.3020019531  0.75447      377.50000 0.8166       1.833740       0.183371
-112.541   0.4226074219  0.79062     4071.50000 0.6392      27.719824       2.771843
-112.553   0.4272460938  0.81075     4071.50000 0.6463      28.269365       2.826868
-112.566   0.4318847656  0.82861     4071.50000 0.6542      28.920792       2.892056
 -95.021   0.4365234375  0.75600     3736.50000 0.4705       5.295186       0.529513
-112.579   0.4365234375  0.84411     4071.50000 0.6620      29.586401       2.958639
 -95.172   0.4411621094  0.77179     3736.50000 0.4573       5.427191       0.542714
-112.593   0.4411621094  0.85745     4071.50000 0.6697      30.271828       3.027175
 -95.315   0.4458007812  0.78416     3736.50000 0.4438       5.561771       0.556172
-112.606   0.4458007812  0.86870     4071.50000 0.6772      30.978384       3.097796
2009  26 21 29  3 350
  49.415   0.1118164062  0.75568     2420.50000 0.9182       0.817870       0.081787
  51.060   0.1118164062  0.75228     2421.00000 0.9202       0.797582       0.079756
  65.295   0.1118164062  0.81106     2424.00000 0.7999       2.001338       0.200131
  87.452   0.1164550781  0.81696     2413.00000 0.9277       0.723481       0.072348
  60.600   0.1164550781  0.85659     2417.50000 0.8337       1.662807       0.166265
  51.276   0.1164550781  0.84060     2420.50000 0.9175       0.824664       0.082466
  52.893   0.1164550781  0.83531     2421.00000 0.9180       0.819862       0.081985
  64.769   0.1164550781  0.88473     2424.00000 0.8088       1.912015       0.191201
  81.529   0.1210937500  0.87281     2412.50000 0.9109       0.891388       0.089129
  83.120   0.1210937500  0.87753     2413.00000 0.9241       0.758953       0.075894
  60.267   0.1210937500  0.90015     2417.50000 0.8432       1.568469       0.156838
  58.753   0.1210937500  0.90046     2418.00000 0.8505       1.494703       0.149462
  52.072   0.1210937500  0.89581     2420.50000 0.9181       0.818610       0.081861
  53.692   0.1210937500  0.89204     2421.00000 0.9175       0.824996       0.082499
  56.451   0.1210937500  0.88954     2421.50000 0.9083       0.916767       0.091675
  63.713   0.1210937500  0.90265     2423.50000 0.8292       1.707602       0.170760
  64.357   0.1210937500  0.90412     2424.00000 0.8161       1.838822       0.183882
  68.332   0.1257324219  0.78097     2400.50000 0.8541       1.458844       0.145884
  67.447   0.1257324219  0.78712     2401.00000 0.8229       1.771104       0.177096
  79.072   0.1257324219  0.90605     2412.50000 0.9084       0.916444       0.091633
  59.751   0.1257324219  0.92435     2417.50000 0.8513       1.486781       0.148674
  58.281   0.1257324219  0.92417     2418.00000 0.8585       1.414896       0.141484
  52.199   0.1257324219  0.92417     2420.50000 0.9196       0.803934       0.080393
  53.883   0.1257324219  0.92238     2421.00000 0.9181       0.818938       0.081894
  56.540   0.1257324219  0.91976     2421.50000 0.9087       0.912708       0.091270
  62.521   0.1257324219  0.91157     2423.00000 0.8519       1.481290       0.148129
  63.433   0.1257324219  0.90855     2423.50000 0.8341       1.658636       0.165864
  67.543   0.1303710938  0.80829     2400.50000 0.8490       1.509981       0.150998
  66.821   0.1303710938  0.81606     2401.00000 0.8212       1.788145       0.178803
  59.065   0.1303710938  0.93607     2417.50000 0.8585       1.414909       0.141489
  57.607   0.1303710938  0.93556     2418.00000 0.8655       1.344847       0.134481
  51.859   0.1303710938  0.93822     2420.50000 0.9216       0.783623       0.078362
  53.672   0.1303710938  0.93832     2421.00000 0.9194       0.805565       0.080557
  56.367   0.1303710938  0.93625     2421.50000 0.9098       0.901591       0.090159
  58.954   0.1303710938  0.93168     2422.00000 0.8941       1.059338       0.105934
  60.939   0.1303710938  0.92512     2422.50000 0.8747       1.253235       0.125324
  62.308   0.1303710938  0.91791     2423.00000 0.8550       1.450157       0.145016
  63.218   0.1303710938  0.91139     2423.50000 0.8383       1.616515       0.161651
  66.549   0.1350097656  0.83526     2401.00000 0.8198       1.802250       0.180216
  58.222   0.1350097656  0.94018     2417.50000 0.8649       1.351382       0.135137
  56.752   0.1350097656  0.93946     2418.00000 0.8717       1.282967       0.128294
  51.163   0.1350097656  0.94263     2420.50000 0.9240       0.759710       0.075970
  53.172   0.1350097656  0.94348     2421.00000 0.9213       0.787365       0.078736
  56.013   0.1350097656  0.94213     2421.50000 0.9114       0.885861       0.088586
  58.685   0.1350097656  0.93767     2422.00000 0.8958       1.042472       0.104247
  60.720   0.1350097656  0.93057     2422.50000 0.8768       1.231913       0.123191
  62.125   0.1350097656  0.92219     2423.00000 0.8578       1.421923       0.142191
  63.062   0.1350097656  0.91388     2423.50000 0.8420       1.580141       0.158012
   8.863   0.1350097656  0.76400     3318.00000 0.8817       1.183490       0.118348
   6.478   0.1350097656  0.75520     3318.50000 0.8781       1.219255       0.121917
  57.236   0.1396484375  0.93901     2417.50000 0.8705       1.295480       0.129548
  55.734   0.1396484375  0.93809     2418.00000 0.8772       1.228424       0.122841
  52.448   0.1396484375  0.94057     2421.00000 0.9234       0.765932       0.076593
  55.527   0.1396484375  0.93979     2421.50000 0.9133       0.867013       0.086701
  58.362   0.1396484375  0.93699     2422.00000 0.8976       1.023725       0.102372
  60.501   0.1396484375  0.93174     2422.50000 0.8789       1.210762       0.121075
  61.974   0.1396484375  0.92433     2423.00000 0.8604       1.396265       0.139624
  11.000   0.1396484375  0.78782     3318.00000 0.8754       1.245727       0.124573
   8.628   0.1396484375  0.78014     3318.50000 0.8707       1.292644       0.129252
  56.124   0.1442871094  0.93359     2417.50000 0.8753       1.246858       0.124686
  54.570   0.1442871094  0.93245     2418.00000 0.8819       1.180766       0.118075
  51.539   0.1442871094  0.93173     2421.00000 0.9258       0.742295       0.074228
  54.940   0.1442871094  0.93141     2421.50000 0.9154       0.845963       0.084596
  58.006   0.1442871094  0.93036     2422.00000 0.8996       1.003685       0.100367
  60.291   0.1442871094  0.92768     2422.50000 0.8810       1.189894       0.118987
  61.857   0.1442871094  0.92261     2423.00000 0.8627       1.372771       0.137273
  40.120   0.1442871094  0.78127     3324.00000 0.9292       0.708029       0.070803
  54.906   0.1489257812  0.92417     2417.50000 0.8795       1.205332       0.120533
  53.281   0.1489257812  0.92284     2418.00000 0.8860       1.139716       0.113970
  50.471   0.1489257812  0.91800     2421.00000 0.9283       0.717132       0.071711
  54.276   0.1489257812  0.91807     2421.50000 0.9177       0.823285       0.082327
  57.631   0.1489257812  0.91808     2422.00000 0.9017       0.982672       0.098265
  60.095   0.1489257812  0.91738     2422.50000 0.8831       1.169264       0.116922
  41.596   0.1489257812  0.82480     3324.00000 0.9364       0.635577       0.063557
  35.851   0.1489257812  0.79075     3324.50000 0.9408       0.591956       0.059193
  53.604   0.1535644531  0.91061     2417.50000 0.8829       1.170759       0.117076
  51.891   0.1535644531  0.90914     2418.00000 0.8895       1.105054       0.110504
  49.261   0.1535644531  0.89914     2421.00000 0.9309       0.690908       0.069087
  53.551   0.1535644531  0.89942     2421.50000 0.9201       0.799354       0.079932
  57.249   0.1535644531  0.89992     2422.00000 0.9039       0.960871       0.096083
  59.922   0.1535644531  0.90030     2422.50000 0.8851       1.148779       0.114871
  62.282   0.1535644531  0.77244     2429.00000 0.8724       1.275955       0.127591
  43.741   0.1535644531  0.83373     3324.00000 0.9440       0.560050       0.056004
  37.671   0.1535644531  0.81739     3324.50000 0.9480       0.519857       0.051982
  52.243   0.1582031250  0.89411     2417.50000 0.8857       1.142975       0.114297
  50.423   0.1582031250  0.89099     2418.00000 0.8923       1.076568       0.107656
  47.919   0.1582031250  0.87393     2421.00000 0.9336       0.663963       0.066391
  52.777   0.1582031250  0.87413     2421.50000 0.9226       0.774440       0.077439
  56.871   0.1582031250  0.87477     2422.00000 0.9062       0.938408       0.093834
  59.776   0.1582031250  0.87564     2422.50000 0.8872       1.128350       0.112825
  63.458   0.1582031250  0.78098     2429.00000 0.8708       1.291691       0.129168
  46.838   0.1582031250  0.81126     3324.00000 0.9517       0.483510       0.048349
  40.266   0.1582031250  0.80971     3324.50000 0.9552       0.447620       0.044758
  50.849   0.1628417969  0.87689     2417.50000 0.8878       1.121778       0.112178
  51.965   0.1628417969  0.83951     2421.50000 0.9251       0.748757       0.074869
  56.505   0.1628417969  0.83998     2422.00000 0.9085       0.915398       0.091531
  68.194   0.1628417969  0.78466     2428.50000 0.8879       1.120740       0.112074
  65.057   0.1628417969  0.77272     2429.00000 0.8666       1.333799       0.133380
  51.345   0.1628417969  0.77389     3324.00000 0.9592       0.408214       0.040819
  44.020   0.1628417969  0.76951     3324.50000 0.9623       0.376622       0.037658
  49.450   0.1674804688  0.85643     2417.50000 0.8893       1.106928       0.110692
  51.124   0.1674804688  0.79119     2421.50000 0.9278       0.722496       0.072241
  67.358   0.1721191406  0.89494     2407.00000 0.7420       2.580634       0.258049
  48.070   0.1721191406  0.82747     2417.50000 0.8902       1.098158       0.109815
  72.736   0.1767578125  0.82378     1190.50000 0.7321       2.679271       0.267895
  67.226   0.1767578125  0.89264     2407.00000 0.7285       2.714789       0.271471
  46.731   0.1767578125  0.79311     2417.50000 0.8905       1.095191       0.109518
  72.604   0.1813964844  0.83662     1190.50000 0.7202       2.798569       0.279837
  67.028   0.1813964844  0.87778     2407.00000 0.7157       2.842734       0.284270
  45.454   0.1813964844  0.76383     2417.50000 0.8902       1.097753       0.109774
  72.459   0.1860351562  0.90031     1190.50000 0.7077       2.922604       0.292251
  67.743   0.1906738281  0.83669     2407.50000 0.6029       3.970949       0.397076
  65.383   0.1953125000  0.86278     2401.00000 0.8434       1.566234       0.156616
  64.926   0.1999511719  0.86122     2401.00000 0.8483       1.516892       0.151681
  62.966   0.1999511719  0.87133     2401.50000 0.8319       1.681211       0.168121
  64.401   0.2045898438  0.87922     2401.00000 0.8535       1.465091       0.146499
  62.521   0.2045898438  0.89024     2401.50000 0.8370       1.630400       0.163039
  63.811   0.2092285156  0.87662     2401.00000 0.8589       1.411590       0.141148
  62.042   0.2092285156  0.88703     2401.50000 0.8421       1.579314       0.157930
  63.159   0.2138671875  0.89258     2401.00000 0.8643       1.357135       0.135702
  61.534   0.2138671875  0.89965     2401.50000 0.8471       1.528530       0.152852
  62.448   0.2185058594  0.88472     2401.00000 0.8698       1.302415       0.130230
  61.002   0.2185058594  0.89009     2401.50000 0.8521       1.478542       0.147853
  61.680   0.2231445312  0.89429     2401.00000 0.8752       1.248032       0.124791
  60.449   0.2231445312  0.89031     2401.50000 0.8570       1.429753       0.142974
  60.860   0.2277832031  0.87571     2401.00000 0.8806       1.194491       0.119437
  59.881   0.2277832031  0.86845     2401.50000 0.8618       1.382473       0.138246
  59.992   0.2324218750  0.84972     2401.00000 0.8858       1.142190       0.114207
  59.301   0.2324218750  0.83919     2401.50000 0.8663       1.336927       0.133692
  59.079   0.2370605469  0.84662     2401.00000 0.8909       1.091427       0.109131
  58.714   0.2370605469  0.81392     2401.50000 0.8707       1.293263       0.129326
  58.124   0.2416992188  0.80502     2401.00000 0.8958       1.042402       0.104229
  58.123   0.2416992188  0.76746     2401.50000 0.8748       1.251563       0.125156
  57.130   0.2463378906  0.75536     2401.00000 0.9005       0.995238       0.099514
-108.156   0.4040527344  0.75577     2539.50000 0.9061       0.939485       0.093948
-108.378   0.4086914062  0.76185     2539.50000 0.9040       0.960313       0.096031
-108.596   0.4133300781  0.76700     2539.50000 0.9019       0.981357       0.098135
-108.810   0.4179687500  0.76461     2539.50000 0.8997       1.002614       0.100261
-109.019   0.4226074219  0.76719     2539.50000 0.8976       1.024082       0.102408
 166.050   0.4736328125  0.75329     2406.00000 0.9805       0.194880       0.019487
 168.840   0.4782714844  0.75680     2406.00000 0.9799       0.200627       0.020063
-102.367   0.4829101562  0.75391     1766.50000 0.7812       2.188565       0.218842
 171.490   0.4829101562  0.76040     2406.00000 0.9793       0.206859       0.020686
-102.486   0.4875488281  0.76583     1766.50000 0.7770       2.229964       0.222982
 174.008   0.4875488281  0.76405     2406.00000 0.9786       0.213553       0.021355
-102.600   0.4921875000  0.77694     1766.50000 0.7728       2.271992       0.227184
 176.399   0.4921875000  0.76768     2406.00000 0.9779       0.220697       0.022068
-102.708   0.4968261719  0.78728     1766.50000 0.7686       2.314643       0.231450
