  12.872   0.1210937500  0.95178     3625.50000 0.9043       0.957352       0.095734
  12.633   0.1210937500  0.95036     3626.00000 0.9049       0.951028       0.095101
  12.256   0.1210937500  0.94981     3626.50000 0.9055       0.944929       0.094491
  11.731   0.1210937500  0.95009     3627.00000 0.9061       0.938944       0.093892
  11.058   0.1210937500  0.95101     3627.50000 0.9067       0.932902       0.093287
  10.245   0.1210937500  0.95230     3628.00000 0.9073       0.926602       0.092657
   9.317   0.1210937500  0.95366     3628.50000 0.9080       0.919887       0.091986
   8.313   0.1210937500  0.95475     3629.00000 0.9087       0.912713       0.091269
   7.285   0.1210937500  0.95527     3629.50000 0.9095       0.905224       0.090520
   6.286   0.1210937500  0.95493     3630.00000 0.9102       0.897781       0.089776
   5.366   0.1210937500  0.95355     3630.50000 0.9109       0.890924       0.089091
   4.562   0.1210937500  0.95099     3631.00000 0.9115       0.885282       0.088527
   3.899   0.1210937500  0.94721     3631.50000 0.9119       0.881446       0.088144
   3.384   0.1210937500  0.94228     3632.00000 0.9120       0.879870       0.087986
   3.016   0.1210937500  0.93634     3632.50000 0.9119       0.880798       0.088079
   2.785   0.1210937500  0.92961     3633.00000 0.9116       0.884243       0.088423
   2.676   0.1210937500  0.92239     3633.50000 0.9110       0.889999       0.088998
   2.672   0.1210937500  0.91500     3634.00000 0.9102       0.897660       0.089762
   2.750   0.1210937500  0.90779     3634.50000 0.9093       0.906647       0.090659
   2.880   0.1210937500  0.90106     3635.00000 0.9084       0.916225       0.091613
  31.921   0.1210937500  0.96667     3760.50000 0.8683       1.317330       0.131729
  31.850   0.1210937500  0.96742     3761.00000 0.8670       1.330353       0.133033
  31.946   0.1210937500  0.96825     3761.50000 0.8667       1.332833       0.133281
  32.194   0.1210937500  0.96919     3762.00000 0.8677       1.323436       0.132342
  32.579   0.1210937500  0.97024     3762.50000 0.8698       1.302019       0.130201
  33.090   0.1210937500  0.97140     3763.00000 0.8730       1.270054       0.127005
  33.710   0.1210937500  0.97262     3763.50000 0.8769       1.230667       0.123066
  34.410   0.1210937500  0.97384     3764.00000 0.8812       1.188102       0.118810
  35.149   0.1210937500  0.97499     3764.50000 0.8853       1.146791       0.114679
  35.871   0.1210937500  0.97596     3765.00000 0.8890       1.110443       0.111044
  36.514   0.1210937500  0.97667     3765.50000 0.8919       1.081508       0.108150
  37.017   0.1210937500  0.97707     3766.00000 0.8939       1.061115       0.106110
  37.337   0.1210937500  0.97715     3766.50000 0.8951       1.049329       0.104931
  34.358   0.1210937500  0.97455     3785.50000 0.8851       1.149007       0.114901
  34.725   0.1210937500  0.97451     3786.00000 0.8852       1.148295       0.114829
  35.123   0.1210937500  0.97448     3786.50000 0.8853       1.146521       0.114652
  35.443   0.1210937500  0.97420     3787.00000 0.8856       1.143610       0.114360
  38.723   0.1210937500  0.96091     3796.50000 0.8704       1.295713       0.129556
  40.554   0.1210937500  0.96138     3797.00000 0.8712       1.287630       0.128753
  42.440   0.1210937500  0.96171     3797.50000 0.8719       1.281009       0.128094
  44.279   0.1210937500  0.96190     3798.00000 0.8723       1.276719       0.127666
  45.960   0.1210937500  0.96194     3798.50000 0.8725       1.275097       0.127504
  47.360   0.1210937500  0.96178     3799.00000 0.8724       1.275987       0.127591
  48.353   0.1210937500  0.96138     3799.50000 0.8721       1.278821       0.127870
  19.384   0.1210937500  0.88236     3917.50000 0.8789       1.211298       0.121124
  20.370   0.1210937500  0.88355     3918.00000 0.8769       1.231240       0.123124
  20.709   0.1210937500  0.88477     3918.50000 0.8754       1.246285       0.124627
  20.477   0.1210937500  0.88630     3919.00000 0.8744       1.255882       0.125582
  19.774   0.1210937500  0.88853     3919.50000 0.8740       1.260388       0.126027
  18.704   0.1210937500  0.89179     3920.00000 0.8739       1.260749       0.126058
  17.365   0.1210937500  0.89628     3920.50000 0.8742       1.258173       0.125799
  15.840   0.1210937500  0.90200     3921.00000 0.8746       1.253901       0.125374
  14.198   0.1210937500  0.90875     3921.50000 0.8751       1.249039       0.124891
  12.492   0.1210937500  0.91618     3922.00000 0.8756       1.244495       0.124442
  10.768   0.1210937500  0.92384     3922.50000 0.8759       1.240944       0.124091
   9.068   0.1210937500  0.93132     3923.00000 0.8761       1.238818       0.123881
   7.432   0.1210937500  0.93823     3923.50000 0.8762       1.238272       0.123827
   5.909   0.1210937500  0.94427     3924.00000 0.8761       1.239177       0.123914
   4.557   0.1210937500  0.94920     3924.50000 0.8759       1.241073       0.124098
  14.787   0.1210937500  0.96466     3930.00000 0.8860       1.140366       0.114036
  15.552   0.1210937500  0.96663     3930.50000 0.8864       1.135992       0.113597
  15.595   0.1210937500  0.96769     3931.00000 0.8864       1.135689       0.113554
   9.687   0.1210937500  0.97659     3938.50000 0.8760       1.240205       0.124014
  10.128   0.1210937500  0.97522     3939.00000 0.8762       1.237640       0.123762
  10.666   0.1210937500  0.97335     3939.50000 0.8767       1.233059       0.123306
  11.284   0.1210937500  0.97116     3940.00000 0.8773       1.226836       0.122684
  11.958   0.1210937500  0.96887     3940.50000 0.8780       1.219557       0.121955
  12.651   0.1210937500  0.96670     3941.00000 0.8788       1.212063       0.121205
  13.315   0.1210937500  0.96481     3941.50000 0.8795       1.205422       0.120540
  13.885   0.1210937500  0.96338     3942.00000 0.8799       1.200958       0.120094
  14.283   0.1210937500  0.96248     3942.50000 0.8800       1.200220       0.120021
  14.421   0.1210937500  0.96214     3943.00000 0.8795       1.204873       0.120487
  14.222   0.1210937500  0.96228     3943.50000 0.8784       1.216483       0.121648
  13.648   0.1210937500  0.96276     3944.00000 0.8764       1.236123       0.123611
  12.728   0.1210937500  0.96339     3944.50000 0.8736       1.263836       0.126381
  11.566   0.1210937500  0.96398     3945.00000 0.8702       1.298117       0.129806
  10.321   0.1210937500  0.96441     3945.50000 0.8664       1.335814       0.133573
   9.159   0.1210937500  0.96463     3946.00000 0.8627       1.372762       0.137266
   8.209   0.1210937500  0.96471     3946.50000 0.8595       1.404842       0.140473
   7.541   0.1210937500  0.96475     3947.00000 0.8571       1.429090       0.142898
   7.178   0.1210937500  0.96482     3947.50000 0.8556       1.444114       0.144402
   7.105   0.1210937500  0.96492     3948.00000 0.8550       1.449947       0.144987
   7.296   0.1210937500  0.96499     3948.50000 0.8553       1.447539       0.144747
  11.072   0.1210937500  0.96541     3951.00000 0.8639       1.360763       0.136074
  12.184   0.1210937500  0.96568     3951.50000 0.8663       1.337268       0.133725
  13.342   0.1210937500  0.96598     3952.00000 0.8686       1.314150       0.131414
  14.509   0.1210937500  0.96624     3952.50000 0.8708       1.292283       0.129227
  15.648   0.1210937500  0.96639     3953.00000 0.8728       1.272465       0.127245
  16.723   0.1210937500  0.96633     3953.50000 0.8745       1.255383       0.125537
  17.709   0.1210937500  0.96595     3954.00000 0.8758       1.241605       0.124159
  18.591   0.1210937500  0.96515     3954.50000 0.8768       1.231521       0.123150
  19.372   0.1210937500  0.96382     3955.00000 0.8775       1.225322       0.122530
  20.066   0.1210937500  0.96192     3955.50000 0.8777       1.222969       0.122295
  20.695   0.1210937500  0.95942     3956.00000 0.8776       1.224183       0.122417
  21.281   0.1210937500  0.95635     3956.50000 0.8772       1.228453       0.122844
  21.838   0.1210937500  0.95279     3957.00000 0.8765       1.235027       0.123502
  22.365   0.1210937500  0.94888     3957.50000 0.8757       1.242940       0.124293
  22.846   0.1210937500  0.94477     3958.00000 0.8749       1.251029       0.125103
  23.250   0.1210937500  0.94063     3958.50000 0.8742       1.257982       0.125798
  23.538   0.1210937500  0.93660     3959.00000 0.8738       1.262441       0.126244
  23.664   0.1210937500  0.93281     3959.50000 0.8737       1.263163       0.126316
  51.733   0.1210937500  0.92983     4037.00000 0.9160       0.840144       0.084007
  50.798   0.1210937500  0.92643     4037.50000 0.9163       0.836721       0.083664
  50.131   0.1210937500  0.92320     4038.00000 0.9161       0.839155       0.083908
  49.743   0.1210937500  0.92024     4038.50000 0.9154       0.846526       0.084646
  49.623   0.1210937500  0.91751     4039.00000 0.9142       0.857811       0.085776
  49.737   0.1210937500  0.91489     4039.50000 0.9128       0.872027       0.087199
  50.050   0.1210937500  0.91219     4040.00000 0.9112       0.888318       0.088830
  50.521   0.1210937500  0.90919     4040.50000 0.9094       0.905799       0.090579
  51.109   0.1210937500  0.90574     4041.00000 0.9076       0.923731       0.092373
  51.778   0.1210937500  0.90179     4041.50000 0.9059       0.941272       0.094127
  52.493   0.1210937500  0.89742     4042.00000 0.9042       0.957570       0.095757
  53.226   0.1210937500  0.89283     4042.50000 0.9028       0.971624       0.097161
  53.955   0.1210937500  0.88837     4043.00000 0.9018       0.982445       0.098243
  54.661   0.1210937500  0.88443     4043.50000 0.9011       0.989271       0.098925
  55.332   0.1210937500  0.88136     4044.00000 0.9008       0.991667       0.099165
  34.448   0.1210937500  0.91031     4060.00000 0.8905       1.094620       0.109451
  35.603   0.1210937500  0.91057     4060.50000 0.8888       1.111669       0.111159
  37.038   0.1210937500  0.91105     4061.00000 0.8855       1.144734       0.114468
  38.674   0.1210937500  0.91182     4061.50000 0.8805       1.195094       0.119504
  40.426   0.1210937500  0.91291     4062.00000 0.8737       1.262950       0.126290
  42.173   0.1210937500  0.91434     4062.50000 0.8654       1.346307       0.134624
  43.854   0.1210937500  0.91609     4063.00000 0.8558       1.442322       0.144223
  45.432   0.1210937500  0.91810     4063.50000 0.8453       1.546803       0.154665
  63.760   0.1257324219  0.76562     3260.50000 0.8714       1.286455       0.128638
  19.783   0.1257324219  0.88848     3346.00000 0.8898       1.102047       0.110204
  18.962   0.1257324219  0.89023     3346.50000 0.8865       1.135099       0.113510
  18.541   0.1257324219  0.89304     3347.00000 0.8831       1.169080       0.116908
  18.572   0.1257324219  0.89682     3347.50000 0.8798       1.201914       0.120191
  19.103   0.1257324219  0.90127     3348.00000 0.8769       1.231328       0.123131
  46.452   0.1257324219  0.93246     3354.00000 0.9011       0.989305       0.098927
  45.076   0.1257324219  0.93324     3354.50000 0.9017       0.982754       0.098269
  43.264   0.1257324219  0.93390     3355.00000 0.9014       0.986225       0.098614
  41.274   0.1257324219  0.93444     3355.50000 0.9002       0.998308       0.099822
  39.294   0.1257324219  0.93484     3356.00000 0.8983       1.017287       0.101721
  37.447   0.1257324219  0.93505     3356.50000 0.8959       1.041374       0.104132
  35.811   0.1257324219  0.93508     3357.00000 0.8931       1.068817       0.106879
  34.426   0.1257324219  0.93493     3357.50000 0.8902       1.097923       0.109791
  33.309   0.1257324219  0.93464     3358.00000 0.8873       1.127029       0.112703
  32.463   0.1257324219  0.93425     3358.50000 0.8846       1.154446       0.115444
  31.876   0.1257324219  0.93382     3359.00000 0.8822       1.178411       0.117840
  31.526   0.1257324219  0.93341     3359.50000 0.8803       1.197075       0.119704
  31.379   0.1257324219  0.93312     3360.00000 0.8791       1.208570       0.120851
  29.048   0.1257324219  0.95250     3364.50000 0.9033       0.967501       0.096749
  28.049   0.1257324219  0.95630     3365.00000 0.9059       0.941039       0.094103
  27.070   0.1257324219  0.95967     3365.50000 0.9076       0.923569       0.092356
  26.219   0.1257324219  0.96234     3366.00000 0.9084       0.916095       0.091609
  25.601   0.1257324219  0.96413     3366.50000 0.9081       0.919219       0.091921
  25.296   0.1257324219  0.96500     3367.00000 0.9067       0.933161       0.093315
  25.353   0.1257324219  0.96514     3367.50000 0.9042       0.957615       0.095759
  31.070   0.1257324219  0.97626     3370.50000 0.8819       1.180793       0.118070
  32.123   0.1257324219  0.97977     3371.00000 0.8805       1.194830       0.119475
  33.031   0.1257324219  0.98272     3371.50000 0.8802       1.197791       0.119772
  33.783   0.1257324219  0.98494     3372.00000 0.8808       1.191955       0.119189
  34.381   0.1257324219  0.98643     3372.50000 0.8820       1.180196       0.118014
  34.837   0.1257324219  0.98729     3373.00000 0.8835       1.165199       0.116515
  35.167   0.1257324219  0.98767     3373.50000 0.8851       1.149054       0.114901
  35.389   0.1257324219  0.98769     3374.00000 0.8867       1.133153       0.113312
  35.520   0.1257324219  0.98747     3374.50000 0.8882       1.118273       0.111824
  35.577   0.1257324219  0.98708     3375.00000 0.8895       1.104711       0.110468
  35.576   0.1257324219  0.98659     3375.50000 0.8908       1.092442       0.109242
  34.931   0.1257324219  0.98059     3379.50000 0.8985       1.015072       0.101506
  34.833   0.1257324219  0.97965     3380.00000 0.8992       1.008026       0.100802
  34.720   0.1257324219  0.97869     3380.50000 0.8998       1.002307       0.100230
  34.586   0.1257324219  0.97773     3381.00000 0.9002       0.997980       0.099797
  34.433   0.1257324219  0.97679     3381.50000 0.9005       0.994908       0.099490
  34.266   0.1257324219  0.97592     3382.00000 0.9007       0.992758       0.099276
  34.093   0.1257324219  0.97514     3382.50000 0.9009       0.991069       0.099107
  33.920   0.1257324219  0.97444     3383.00000 0.9011       0.989339       0.098934
  33.752   0.1257324219  0.97379     3383.50000 0.9013       0.987133       0.098713
  33.585   0.1257324219  0.97308     3384.00000 0.9016       0.984169       0.098417
  33.413   0.1257324219  0.97219     3384.50000 0.9020       0.980360       0.098036
  33.226   0.1257324219  0.97098     3385.00000 0.9024       0.975826       0.097582
  33.010   0.1257324219  0.96933     3385.50000 0.9029       0.970860       0.097085
  32.753   0.1257324219  0.96715     3386.00000 0.9034       0.965871       0.096586
  32.445   0.1257324219  0.96438     3386.50000 0.9039       0.961334       0.096132
  32.078   0.1257324219  0.96103     3387.00000 0.9042       0.957733       0.095771
  31.650   0.1257324219  0.95712     3387.50000 0.9045       0.955526       0.095549
  31.164   0.1257324219  0.95270     3388.00000 0.9045       0.955112       0.095507
  30.627   0.1257324219  0.94782     3388.50000 0.9043       0.956811       0.095676
  30.051   0.1257324219  0.94258     3389.00000 0.9039       0.960830       0.096077
  29.453   0.1257324219  0.93705     3389.50000 0.9033       0.967233       0.096716
  28.853   0.1257324219  0.93131     3390.00000 0.9024       0.975897       0.097582
  28.272   0.1257324219  0.92548     3390.50000 0.9014       0.986486       0.098640
  27.726   0.1257324219  0.91964     3391.00000 0.9002       0.998450       0.099836
  27.229   0.1257324219  0.91389     3391.50000 0.8989       1.011072       0.101097
  26.784   0.1257324219  0.90836     3392.00000 0.8977       1.023568       0.102347
  26.388   0.1257324219  0.90314     3392.50000 0.8965       1.035203       0.103510
  26.029   0.1257324219  0.89838     3393.00000 0.8955       1.045378       0.104528
  25.696   0.1257324219  0.89420     3393.50000 0.8946       1.053662       0.105356
  25.380   0.1257324219  0.89073     3394.00000 0.8940       1.059743       0.105964
  25.075   0.1257324219  0.88807     3394.50000 0.8937       1.063375       0.106328
  24.781   0.1257324219  0.88631     3395.00000 0.8936       1.064320       0.106423
  24.504   0.1257324219  0.88545     3395.50000 0.8938       1.062356       0.106227
  24.251   0.1257324219  0.88548     3396.00000 0.8943       1.057321       0.105724
  24.029   0.1257324219  0.88629     3396.50000 0.8951       1.049207       0.104913
  23.842   0.1257324219  0.88774     3397.00000 0.8962       1.038259       0.103819
  23.691   0.1257324219  0.88970     3397.50000 0.8975       1.025047       0.102498
  23.567   0.1257324219  0.89202     3398.00000 0.8990       1.010505       0.101044
  23.456   0.1257324219  0.89458     3398.50000 0.9004       0.995900       0.099583
  23.332   0.1257324219  0.89727     3399.00000 0.9017       0.982756       0.098269
  23.164   0.1257324219  0.90005     3399.50000 0.9027       0.972737       0.097266
  22.915   0.1257324219  0.90285     3400.00000 0.9033       0.967508       0.096742
  22.544   0.1257324219  0.90563     3400.50000 0.9032       0.968591       0.096848
  -7.233   0.1257324219  0.89286     3439.00000 0.8867       1.133389       0.113325
  -7.237   0.1257324219  0.87985     3439.50000 0.8867       1.132870       0.113277
  -6.972   0.1257324219  0.86360     3440.00000 0.8867       1.133291       0.113322
  -6.505   0.1257324219  0.84457     3440.50000 0.8865       1.134947       0.113490
  -5.944   0.1257324219  0.82433     3441.00000 0.8862       1.137730       0.113769
  -5.398   0.1257324219  0.80585     3441.50000 0.8859       1.141260       0.114123
  -4.958   0.1257324219  0.79311     3442.00000 0.8855       1.145119       0.114509
  -4.684   0.1257324219  0.78811     3442.50000 0.8851       1.149078       0.114905
  -4.610   0.1257324219  0.78829     3443.00000 0.8847       1.153205       0.115317
  -4.749   0.1257324219  0.79026     3443.50000 0.8842       1.157900       0.115785
  -5.106   0.1257324219  0.79249     3444.00000 0.8836       1.163860       0.116380
  -5.683   0.1257324219  0.79462     3444.50000 0.8828       1.172054       0.117198
  -6.478   0.1257324219  0.79660     3445.00000 0.8816       1.183713       0.118361
  -7.491   0.1257324219  0.79849     3445.50000 0.8800       1.200357       0.120023
  -8.715   0.1257324219  0.80030     3446.00000 0.8776       1.223829       0.122368
 -17.372   0.1257324219  0.80548     3449.00000 0.8424       1.576597       0.157645
 -17.990   0.1257324219  0.80291     3449.50000 0.8365       1.634807       0.163469
 -18.288   0.1257324219  0.79788     3450.00000 0.8333       1.667556       0.166746
 -28.336   0.1257324219  0.82516     3480.00000 0.8514       1.486013       0.148594
  18.724   0.1257324219  0.98281     3593.00000 0.9046       0.954030       0.095390
  19.116   0.1257324219  0.98323     3593.50000 0.9055       0.945481       0.094538
  19.331   0.1257324219  0.98368     3594.00000 0.9057       0.943563       0.094349
  19.353   0.1257324219  0.98419     3594.50000 0.9052       0.948392       0.094834
  19.190   0.1257324219  0.98477     3595.00000 0.9041       0.959512       0.095947
  18.866   0.1257324219  0.98546     3595.50000 0.9024       0.975902       0.097587
  18.422   0.1257324219  0.98626     3596.00000 0.9004       0.996035       0.099600
  17.903   0.1257324219  0.98717     3596.50000 0.8982       1.018005       0.101797
  17.355   0.1257324219  0.98815     3597.00000 0.8960       1.039740       0.103970
  16.815   0.1257324219  0.98916     3597.50000 0.8941       1.059268       0.105923
  16.313   0.1257324219  0.99010     3598.00000 0.8925       1.075001       0.107495
  15.863   0.1257324219  0.99091     3598.50000 0.8914       1.085948       0.108588
  15.472   0.1257324219  0.99151     3599.00000 0.8908       1.091807       0.109173
  15.137   0.1257324219  0.99184     3599.50000 0.8907       1.092903       0.109281
  14.848   0.1257324219  0.99190     3600.00000 0.8910       1.090019       0.108992
  14.592   0.1257324219  0.99169     3600.50000 0.8916       1.084165       0.108405
  13.188   0.1257324219  0.98870     3603.50000 0.8968       1.032552       0.103247
  12.967   0.1257324219  0.98844     3604.00000 0.8975       1.025213       0.102514
  12.779   0.1257324219  0.98828     3604.50000 0.8981       1.018714       0.101865
  12.646   0.1257324219  0.98820     3605.00000 0.8987       1.013207       0.101316
  12.592   0.1257324219  0.98818     3605.50000 0.8991       1.008877       0.100883
  12.637   0.1257324219  0.98818     3606.00000 0.8994       1.005915       0.100588
  12.795   0.1257324219  0.98822     3606.50000 0.8996       1.004473       0.100445
  13.067   0.1257324219  0.98827     3607.00000 0.8995       1.004610       0.100459
  13.440   0.1257324219  0.98835     3607.50000 0.8994       1.006257       0.100624
  13.889   0.1257324219  0.98847     3608.00000 0.8991       1.009195       0.100918
  14.380   0.1257324219  0.98866     3608.50000 0.8987       1.013071       0.101306
  14.875   0.1257324219  0.98893     3609.00000 0.8983       1.017431       0.101743
  15.335   0.1257324219  0.98929     3609.50000 0.8978       1.021770       0.102177
  15.725   0.1257324219  0.98974     3610.00000 0.8974       1.025599       0.102560
  16.013   0.1257324219  0.99026     3610.50000 0.8972       1.028494       0.102849
  16.176   0.1257324219  0.99080     3611.00000 0.8970       1.030142       0.103014
  16.199   0.1257324219  0.99127     3611.50000 0.8970       1.030370       0.103037
  16.070   0.1257324219  0.99161     3612.00000 0.8971       1.029148       0.102915
  15.788   0.1257324219  0.99173     3612.50000 0.8973       1.026589       0.102659
  15.355   0.1257324219  0.99156     3613.00000 0.8977       1.022923       0.102292
  14.784   0.1257324219  0.99108     3613.50000 0.8982       1.018474       0.101847
  14.094   0.1257324219  0.99029     3614.00000 0.8986       1.013624       0.101362
  13.311   0.1257324219  0.98923     3614.50000 0.8991       1.008786       0.100879
  12.469   0.1257324219  0.98795     3615.00000 0.8996       1.004362       0.100436
  11.610   0.1257324219  0.98654     3615.50000 0.8999       1.000715       0.100071
  10.777   0.1257324219  0.98505     3616.00000 0.9002       0.998131       0.099813
  10.020   0.1257324219  0.98356     3616.50000 0.9003       0.996796       0.099679
   9.385   0.1257324219  0.98212     3617.00000 0.9003       0.996773       0.099676
   8.914   0.1257324219  0.98077     3617.50000 0.9002       0.997989       0.099796
   8.640   0.1257324219  0.97954     3618.00000 0.9000       1.000233       0.100020
   8.582   0.1257324219  0.97845     3618.50000 0.8997       1.003162       0.100312
   8.738   0.1257324219  0.97750     3619.00000 0.8994       1.006320       0.100627
   9.087   0.1257324219  0.97668     3619.50000 0.8991       1.009179       0.100913
   9.584   0.1257324219  0.97595     3620.00000 0.8989       1.011201       0.101115
  10.173   0.1257324219  0.97526     3620.50000 0.8988       1.011911       0.101186
  10.795   0.1257324219  0.97453     3621.00000 0.8989       1.010982       0.101094
  11.396   0.1257324219  0.97364     3621.50000 0.8992       1.008294       0.100827
  11.939   0.1257324219  0.97246     3622.00000 0.8996       1.003938       0.100392
  12.404   0.1257324219  0.97081     3622.50000 0.9002       0.998186       0.099818
  12.781   0.1257324219  0.96854     3623.00000 0.9009       0.991419       0.099142
  13.069   0.1257324219  0.96556     3623.50000 0.9016       0.984052       0.098405
  13.269   0.1257324219  0.96192     3624.00000 0.9024       0.976483       0.097648
  13.377   0.1257324219  0.95788     3624.50000 0.9031       0.969050       0.096905
  13.384   0.1257324219  0.95382     3625.00000 0.9038       0.962009       0.096200
  13.274   0.1257324219  0.95022     3625.50000 0.9044       0.955521       0.095550
  13.031   0.1257324219  0.94746     3626.00000 0.9050       0.949632       0.094961
  12.632   0.1257324219  0.94578     3626.50000 0.9056       0.944268       0.094424
  12.062   0.1257324219  0.94524     3627.00000 0.9061       0.939216       0.093918
  11.313   0.1257324219  0.94573     3627.50000 0.9066       0.934143       0.093411
  10.395   0.1257324219  0.94697     3628.00000 0.9071       0.928637       0.092860
   9.336   0.1257324219  0.94862     3628.50000 0.9078       0.922302       0.092227
   8.189   0.1257324219  0.95025     3629.00000 0.9085       0.914898       0.091487
   7.022   0.1257324219  0.95145     3629.50000 0.9094       0.906490       0.090647
   5.907   0.1257324219  0.95186     3630.00000 0.9102       0.897529       0.089751
   4.910   0.1257324219  0.95117     3630.50000 0.9111       0.888803       0.088879
   4.077   0.1257324219  0.94916     3631.00000 0.9119       0.881280       0.088127
   3.430   0.1257324219  0.94573     3631.50000 0.9124       0.875884       0.087588
   2.971   0.1257324219  0.94087     3632.00000 0.9127       0.873320       0.087331
   2.691   0.1257324219  0.93469     3632.50000 0.9126       0.873981       0.087397
   2.574   0.1257324219  0.92738     3633.00000 0.9122       0.877932       0.087792
   2.599   0.1257324219  0.91921     3633.50000 0.9115       0.884954       0.088494
   2.745   0.1257324219  0.91055     3634.00000 0.9105       0.894577       0.089455
   2.985   0.1257324219  0.90181     3634.50000 0.9094       0.906112       0.090607
   3.286   0.1257324219  0.89343     3635.00000 0.9081       0.918662       0.091858
  31.498   0.1257324219  0.96036     3760.50000 0.8655       1.345351       0.134532
  31.473   0.1257324219  0.96124     3761.00000 0.8638       1.362352       0.136233
  31.618   0.1257324219  0.96221     3761.50000 0.8633       1.366652       0.136664
  31.917   0.1257324219  0.96329     3762.00000 0.8644       1.355942       0.135593
  32.356   0.1257324219  0.96448     3762.50000 0.8671       1.329470       0.132946
  32.931   0.1257324219  0.96577     3763.00000 0.8711       1.288914       0.128891
  33.631   0.1257324219  0.96710     3763.50000 0.8761       1.238580       0.123858
  34.434   0.1257324219  0.96842     3764.00000 0.8815       1.184550       0.118455
  35.295   0.1257324219  0.96961     3764.50000 0.8867       1.133090       0.113309
  36.146   0.1257324219  0.97057     3765.00000 0.8911       1.089145       0.108914
  36.904   0.1257324219  0.97121     3765.50000 0.8944       1.055600       0.105559
  37.489   0.1257324219  0.97149     3766.00000 0.8967       1.033412       0.103340
  37.844   0.1257324219  0.97145     3766.50000 0.8978       1.022182       0.102217
  34.181   0.1257324219  0.99112     3773.00000 0.8904       1.096172       0.109617
  34.558   0.1257324219  0.99149     3773.50000 0.8933       1.066758       0.106676
  33.544   0.1257324219  0.96857     3785.00000 0.8853       1.147165       0.114716
  33.949   0.1257324219  0.96733     3785.50000 0.8850       1.149954       0.114995
  34.576   0.1257324219  0.96692     3786.00000 0.8848       1.151966       0.115196
  35.229   0.1257324219  0.96697     3786.50000 0.8848       1.151526       0.115153
  35.738   0.1257324219  0.96701     3787.00000 0.8852       1.147938       0.114794
  36.016   0.1257324219  0.96664     3787.50000 0.8858       1.141802       0.114178
  36.215   0.1257324219  0.94965     3796.00000 0.8687       1.312977       0.131278
  38.152   0.1257324219  0.95025     3796.50000 0.8701       1.299228       0.129912
  40.297   0.1257324219  0.95069     3797.00000 0.8714       1.286487       0.128643
  42.545   0.1257324219  0.95098     3797.50000 0.8723       1.276580       0.127655
  44.775   0.1257324219  0.95114     3798.00000 0.8729       1.270555       0.127054
  46.857   0.1257324219  0.95119     3798.50000 0.8731       1.268735       0.126871
  48.643   0.1257324219  0.95110     3799.00000 0.8729       1.270778       0.127074
  49.972   0.1257324219  0.95083     3799.50000 0.8724       1.275763       0.127569
  50.677   0.1257324219  0.95027     3800.00000 0.8718       1.282358       0.128220
  21.457   0.1257324219  0.85749     3917.50000 0.8779       1.221184       0.122113
  22.460   0.1257324219  0.85875     3918.00000 0.8756       1.244434       0.124443
  22.642   0.1257324219  0.86002     3918.50000 0.8739       1.260670       0.126064
  22.126   0.1257324219  0.86176     3919.00000 0.8730       1.269625       0.126951
  11.951   0.1257324219  0.89868     3922.00000 0.8752       1.248131       0.124800
   9.985   0.1257324219  0.90731     3922.50000 0.8755       1.244657       0.124460
   8.084   0.1257324219  0.91541     3923.00000 0.8757       1.243156       0.124314
   6.280   0.1257324219  0.92262     3923.50000 0.8756       1.243720       0.124372
   4.613   0.1257324219  0.92861     3924.00000 0.8754       1.246142       0.124611
   3.131   0.1257324219  0.93316     3924.50000 0.8750       1.249888       0.124979
  16.844   0.1257324219  0.95066     3930.00000 0.8869       1.131185       0.113116
  17.645   0.1257324219  0.95374     3930.50000 0.8874       1.125793       0.112577
   8.926   0.1257324219  0.96888     3938.50000 0.8749       1.251162       0.125112
   9.488   0.1257324219  0.96730     3939.00000 0.8752       1.247965       0.124796
  10.181   0.1257324219  0.96536     3939.50000 0.8758       1.241859       0.124186
  10.985   0.1257324219  0.96333     3940.00000 0.8767       1.233243       0.123323
  11.869   0.1257324219  0.96142     3940.50000 0.8777       1.222785       0.122276
  12.791   0.1257324219  0.95984     3941.00000 0.8789       1.211430       0.121139
  13.693   0.1257324219  0.95871     3941.50000 0.8800       1.200415       0.120037
  14.495   0.1257324219  0.95812     3942.00000 0.8809       1.191303       0.119127
  15.094   0.1257324219  0.95803     3942.50000 0.8814       1.186023       0.118600
  15.370   0.1257324219  0.95833     3943.00000 0.8813       1.186836       0.118683
  15.203   0.1257324219  0.95882     3943.50000 0.8804       1.196151       0.119615
  14.521   0.1257324219  0.95924     3944.00000 0.8784       1.216028       0.121602
  13.350   0.1257324219  0.95936     3944.50000 0.8753       1.247330       0.124729
  11.841   0.1257324219  0.95908     3945.00000 0.8711       1.288619       0.128854
  10.231   0.1257324219  0.95853     3945.50000 0.8664       1.335678       0.133556
   8.762   0.1257324219  0.95799     3946.00000 0.8618       1.382324       0.138219
   7.602   0.1257324219  0.95774     3946.50000 0.8578       1.422404       0.142226
   6.824   0.1257324219  0.95785     3947.00000 0.8548       1.451723       0.145159
   6.428   0.1257324219  0.95816     3947.50000 0.8531       1.468687       0.146858
   6.377   0.1257324219  0.95846     3948.00000 0.8526       1.473834       0.147374
  12.207   0.1257324219  0.95975     3951.50000 0.8666       1.334372       0.133436
  13.511   0.1257324219  0.96032     3952.00000 0.8692       1.308198       0.130819
  14.808   0.1257324219  0.96094     3952.50000 0.8716       1.283887       0.128388
  16.047   0.1257324219  0.96155     3953.00000 0.8738       1.262275       0.126226
  17.176   0.1257324219  0.96204     3953.50000 0.8756       1.244066       0.124405
  18.160   0.1257324219  0.96229     3954.00000 0.8770       1.229797       0.122978
  18.983   0.1257324219  0.96219     3954.50000 0.8780       1.219827       0.121981
  19.662   0.1257324219  0.96158     3955.00000 0.8786       1.214305       0.121428
  20.235   0.1257324219  0.96034     3955.50000 0.8787       1.213175       0.121315
  20.756   0.1257324219  0.95836     3956.00000 0.8784       1.216160       0.121614
  21.273   0.1257324219  0.95559     3956.50000 0.8777       1.222767       0.122275
  21.817   0.1257324219  0.95205     3957.00000 0.8768       1.232287       0.123228
  22.391   0.1257324219  0.94786     3957.50000 0.8756       1.243745       0.124374
  22.973   0.1257324219  0.94319     3958.00000 0.8744       1.255878       0.125588
  23.517   0.1257324219  0.93829     3958.50000 0.8733       1.267096       0.126710
  23.960   0.1257324219  0.93339     3959.00000 0.8724       1.275539       0.127554
  24.235   0.1257324219  0.92871     3959.50000 0.8721       1.279290       0.127929
  40.113   0.1257324219  0.90484     4024.00000 0.8851       1.149462       0.114932
  42.085   0.1257324219  0.90695     4024.50000 0.8860       1.140590       0.114044
  44.479   0.1257324219  0.90946     4025.00000 0.8859       1.141620       0.114145
  50.831   0.1257324219  0.92174     4037.00000 0.9183       0.817460       0.081737
  49.951   0.1257324219  0.91931     4037.50000 0.9182       0.817855       0.081776
  49.391   0.1257324219  0.91743     4038.00000 0.9176       0.824357       0.082426
  49.142   0.1257324219  0.91603     4038.50000 0.9164       0.835651       0.083557
  49.173   0.1257324219  0.91488     4039.00000 0.9150       0.850529       0.085046
  49.438   0.1257324219  0.91366     4039.50000 0.9132       0.868006       0.086796
  49.890   0.1257324219  0.91200     4040.00000 0.9113       0.887319       0.088729
  50.486   0.1257324219  0.90958     4040.50000 0.9092       0.907900       0.090789
  51.179   0.1257324219  0.90621     4041.00000 0.9071       0.929043       0.092904
  51.935   0.1257324219  0.90186     4041.50000 0.9050       0.950210       0.095021
  52.711   0.1257324219  0.89673     4042.00000 0.9030       0.970381       0.097037
  53.479   0.1257324219  0.89120     4042.50000 0.9012       0.988225       0.098821
  54.210   0.1257324219  0.88583     4043.00000 0.8998       1.002071       0.100204
  54.897   0.1257324219  0.88120     4043.50000 0.8990       1.010458       0.101043
  55.532   0.1257324219  0.87779     4044.00000 0.8988       1.012290       0.101226
  33.749   0.1257324219  0.90887     4059.50000 0.8944       1.055704       0.105558
  34.587   0.1257324219  0.90942     4060.00000 0.8941       1.058893       0.105881
  35.748   0.1257324219  0.91020     4060.50000 0.8920       1.079989       0.107993
  37.234   0.1257324219  0.91128     4061.00000 0.8879       1.120568       0.112053
  38.928   0.1257324219  0.91270     4061.50000 0.8818       1.181831       0.118180
  40.684   0.1257324219  0.91449     4062.00000 0.8736       1.263967       0.126393
  42.423   0.1257324219  0.91664     4062.50000 0.8637       1.362561       0.136250
  44.080   0.1257324219  0.91911     4063.00000 0.8525       1.474706       0.147461
  45.587   0.1257324219  0.92179     4063.50000 0.8406       1.594039       0.159387
  18.147   0.1303710938  0.75530     3188.50000 0.8909       1.090632       0.109052
  19.070   0.1303710938  0.75739     3189.00000 0.8926       1.074378       0.107429
  20.035   0.1303710938  0.75664     3189.50000 0.8944       1.056248       0.105618
  21.054   0.1303710938  0.75334     3190.00000 0.8963       1.036879       0.103683
  68.878   0.1303710938  0.76542     3259.50000 0.8443       1.557360       0.155734
  66.469   0.1303710938  0.75772     3260.00000 0.8582       1.417599       0.141757
  20.455   0.1303710938  0.87047     3345.50000 0.8940       1.060072       0.106006
  19.009   0.1303710938  0.87230     3346.00000 0.8905       1.094976       0.109497
  17.955   0.1303710938  0.87546     3346.50000 0.8866       1.133643       0.113364
  17.367   0.1303710938  0.87988     3347.00000 0.8826       1.173940       0.117394
  17.294   0.1303710938  0.88517     3347.50000 0.8786       1.213551       0.121355
  17.779   0.1303710938  0.89077     3348.00000 0.8750       1.249977       0.124995
  18.868   0.1303710938  0.89607     3348.50000 0.8720       1.280443       0.128038
  41.603   0.1303710938  0.92010     3355.50000 0.9019       0.980670       0.098054
  39.247   0.1303710938  0.92043     3356.00000 0.8996       1.003974       0.100386
  37.120   0.1303710938  0.92056     3356.50000 0.8967       1.032769       0.103269
  35.290   0.1303710938  0.92050     3357.00000 0.8935       1.065000       0.106496
  33.788   0.1303710938  0.92028     3357.50000 0.8901       1.098805       0.109879
  32.621   0.1303710938  0.91991     3358.00000 0.8868       1.132450       0.113245
  31.783   0.1303710938  0.91944     3358.50000 0.8836       1.164228       0.116422
  31.255   0.1303710938  0.91891     3359.00000 0.8808       1.192350       0.119233
  31.011   0.1303710938  0.91840     3359.50000 0.8785       1.214854       0.121480
  31.007   0.1303710938  0.91808     3360.00000 0.8770       1.229601       0.122952
  29.160   0.1303710938  0.94422     3364.50000 0.9046       0.954123       0.095412
  27.944   0.1303710938  0.94837     3365.00000 0.9077       0.923199       0.092320
  26.740   0.1303710938  0.95173     3365.50000 0.9097       0.902526       0.090252
  25.682   0.1303710938  0.95404     3366.00000 0.9107       0.893105       0.089310
  24.896   0.1303710938  0.95520     3366.50000 0.9104       0.895622       0.089562
  24.483   0.1303710938  0.95543     3367.00000 0.9089       0.910537       0.091052
  24.506   0.1303710938  0.95538     3367.50000 0.9062       0.937912       0.093789
  32.276   0.1303710938  0.98016     3371.00000 0.8784       1.216097       0.121600
  33.259   0.1303710938  0.98290     3371.50000 0.8784       1.215705       0.121562
  34.048   0.1303710938  0.98468     3372.00000 0.8795       1.204977       0.120491
  34.656   0.1303710938  0.98570     3372.50000 0.8812       1.188141       0.118808
  35.101   0.1303710938  0.98617     3373.00000 0.8831       1.168785       0.116873
  35.408   0.1303710938  0.98628     3373.50000 0.8851       1.149417       0.114937
  35.598   0.1303710938  0.98615     3374.00000 0.8869       1.131495       0.113146
  35.693   0.1303710938  0.98586     3374.50000 0.8884       1.115644       0.111561
  35.710   0.1303710938  0.98548     3375.00000 0.8898       1.101915       0.110189
  35.670   0.1303710938  0.98502     3375.50000 0.8910       1.089999       0.108997
  34.845   0.1303710938  0.97837     3380.00000 0.8994       1.005814       0.100580
  34.737   0.1303710938  0.97740     3380.50000 0.9000       1.000214       0.100020
  34.597   0.1303710938  0.97644     3381.00000 0.9004       0.996394       0.099639
  34.428   0.1303710938  0.97557     3381.50000 0.9006       0.994183       0.099418
  34.239   0.1303710938  0.97485     3382.00000 0.9007       0.993128       0.099312
  34.046   0.1303710938  0.97430     3382.50000 0.9007       0.992584       0.099258
  33.863   0.1303710938  0.97391     3383.00000 0.9008       0.991839       0.099184
  33.698   0.1303710938  0.97360     3383.50000 0.9010       0.990262       0.099026
  33.552   0.1303710938  0.97323     3384.00000 0.9013       0.987434       0.098743
  33.415   0.1303710938  0.97266     3384.50000 0.9017       0.983221       0.098322
  33.270   0.1303710938  0.97175     3385.00000 0.9022       0.977794       0.097779
  33.098   0.1303710938  0.97042     3385.50000 0.9028       0.971571       0.097157
  32.876   0.1303710938  0.96861     3386.00000 0.9035       0.965137       0.096513
  32.590   0.1303710938  0.96633     3386.50000 0.9041       0.959151       0.095914
  32.228   0.1303710938  0.96355     3387.00000 0.9046       0.954263       0.095424
  31.786   0.1303710938  0.96028     3387.50000 0.9049       0.951070       0.095104
  31.267   0.1303710938  0.95651     3388.00000 0.9050       0.950076       0.095003
  30.682   0.1303710938  0.95225     3388.50000 0.9048       0.951666       0.095161
  30.048   0.1303710938  0.94753     3389.00000 0.9044       0.956077       0.095601
  29.391   0.1303710938  0.94241     3389.50000 0.9037       0.963347       0.096327
  28.738   0.1303710938  0.93695     3390.00000 0.9027       0.973265       0.097318
  28.119   0.1303710938  0.93124     3390.50000 0.9015       0.985332       0.098524
  27.560   0.1303710938  0.92537     3391.00000 0.9001       0.998774       0.099868
  27.075   0.1303710938  0.91944     3391.50000 0.8987       1.012649       0.101255
  26.664   0.1303710938  0.91357     3392.00000 0.8974       1.026024       0.102592
  26.312   0.1303710938  0.90787     3392.50000 0.8962       1.038160       0.103806
  25.997   0.1303710938  0.90248     3393.00000 0.8951       1.048609       0.104851
  25.697   0.1303710938  0.89753     3393.50000 0.8943       1.057165       0.105706
  25.396   0.1303710938  0.89320     3394.00000 0.8936       1.063718       0.106362
  25.085   0.1303710938  0.88963     3394.50000 0.8932       1.068100       0.106800
  24.771   0.1303710938  0.88697     3395.00000 0.8930       1.069996       0.106990
  24.463   0.1303710938  0.88529     3395.50000 0.8931       1.068951       0.106886
  24.178   0.1303710938  0.88463     3396.00000 0.8936       1.064480       0.106440
  23.932   0.1303710938  0.88493     3396.50000 0.8944       1.056231       0.105616
  23.736   0.1303710938  0.88607     3397.00000 0.8956       1.044183       0.104411
  23.596   0.1303710938  0.88788     3397.50000 0.8971       1.028792       0.102873
  23.506   0.1303710938  0.89018     3398.00000 0.8989       1.011070       0.101101
  23.451   0.1303710938  0.89280     3398.50000 0.9008       0.992553       0.099249
  23.403   0.1303710938  0.89561     3399.00000 0.9025       0.975177       0.097512
  23.321   0.1303710938  0.89854     3399.50000 0.9039       0.961092       0.096102
  23.158   0.1303710938  0.90152     3400.00000 0.9048       0.952469       0.095239
  22.864   0.1303710938  0.90451     3400.50000 0.9049       0.951313       0.095121
  -7.678   0.1303710938  0.90871     3439.00000 0.8870       1.130319       0.113018
  -7.672   0.1303710938  0.89804     3439.50000 0.8872       1.128550       0.112846
  -7.293   0.1303710938  0.88385     3440.00000 0.8871       1.128887       0.112883
  -6.644   0.1303710938  0.86576     3440.50000 0.8868       1.131559       0.113152
  -5.880   0.1303710938  0.84409     3441.00000 0.8864       1.135970       0.113594
  -5.152   0.1303710938  0.82050     3441.50000 0.8859       1.141054       0.114103
  -4.573   0.1303710938  0.79894     3442.00000 0.8854       1.145806       0.114579
  -4.208   0.1303710938  0.78559     3442.50000 0.8850       1.149674       0.114965
  -4.083   0.1303710938  0.78258     3443.00000 0.8847       1.152703       0.115267
  -4.204   0.1303710938  0.78404     3443.50000 0.8845       1.155475       0.115543
  -4.570   0.1303710938  0.78598     3444.00000 0.8841       1.158989       0.115893
  -5.179   0.1303710938  0.78763     3444.50000 0.8836       1.164557       0.116448
  -6.030   0.1303710938  0.78902     3445.00000 0.8826       1.173773       0.117367
  -7.132   0.1303710938  0.79027     3445.50000 0.8812       1.188561       0.118843
  -8.487   0.1303710938  0.79147     3446.00000 0.8789       1.211282       0.121112
 -18.212   0.1303710938  0.79687     3449.00000 0.8386       1.614575       0.161445
 -18.573   0.1303710938  0.79571     3449.50000 0.8326       1.673890       0.167381
 -18.475   0.1303710938  0.79258     3450.00000 0.8303       1.696597       0.169654
 -27.012   0.1303710938  0.78802     3480.00000 0.8549       1.451081       0.145103
  19.168   0.1303710938  0.98071     3593.00000 0.9062       0.938146       0.093802
  19.606   0.1303710938  0.98118     3593.50000 0.9072       0.928335       0.092824
  19.827   0.1303710938  0.98172     3594.00000 0.9074       0.926562       0.092650
  19.817   0.1303710938  0.98236     3594.50000 0.9067       0.932985       0.093294
  19.588   0.1303710938  0.98313     3595.00000 0.9053       0.947060       0.094703
  19.175   0.1303710938  0.98405     3595.50000 0.9032       0.967533       0.096751
  18.629   0.1303710938  0.98512     3596.00000 0.9008       0.992497       0.099247
  18.009   0.1303710938  0.98632     3596.50000 0.8980       1.019536       0.101951
  17.370   0.1303710938  0.98759     3597.00000 0.8954       1.045981       0.104595
  16.756   0.1303710938  0.98884     3597.50000 0.8931       1.069273       0.106924
  16.202   0.1303710938  0.98998     3598.00000 0.8913       1.087375       0.108733
  15.725   0.1303710938  0.99091     3598.50000 0.8901       1.099093       0.109903
  15.330   0.1303710938  0.99155     3599.00000 0.8896       1.104218       0.110414
  15.010   0.1303710938  0.99186     3599.50000 0.8897       1.103422       0.110333
  14.750   0.1303710938  0.99182     3600.00000 0.8902       1.097973       0.109786
  13.174   0.1303710938  0.98708     3603.50000 0.8970       1.030144       0.103006
  12.904   0.1303710938  0.98666     3604.00000 0.8977       1.022727       0.102265
  12.654   0.1303710938  0.98639     3604.50000 0.8984       1.016131       0.101607
  12.456   0.1303710938  0.98624     3605.00000 0.8990       1.010438       0.101039
  12.345   0.1303710938  0.98618     3605.50000 0.8994       1.005839       0.100580
  12.353   0.1303710938  0.98616     3606.00000 0.8997       1.002600       0.100257
  12.502   0.1303710938  0.98619     3606.50000 0.8999       1.000992       0.100097
  12.799   0.1303710938  0.98625     3607.00000 0.8999       1.001200       0.100118
  13.229   0.1303710938  0.98638     3607.50000 0.8997       1.003243       0.100323
  13.760   0.1303710938  0.98660     3608.00000 0.8993       1.006932       0.100692
  14.349   0.1303710938  0.98693     3608.50000 0.8988       1.011865       0.101186
  14.944   0.1303710938  0.98738     3609.00000 0.8983       1.017478       0.101747
  15.498   0.1303710938  0.98797     3609.50000 0.8977       1.023115       0.102311
  15.968   0.1303710938  0.98867     3610.00000 0.8972       1.028124       0.102812
  16.318   0.1303710938  0.98943     3610.50000 0.8968       1.031945       0.103195
  16.524   0.1303710938  0.99018     3611.00000 0.8966       1.034178       0.103418
  16.567   0.1303710938  0.99086     3611.50000 0.8965       1.034613       0.103461
  16.438   0.1303710938  0.99138     3612.00000 0.8967       1.033236       0.103324
  16.134   0.1303710938  0.99166     3612.50000 0.8970       1.030208       0.103021
  15.659   0.1303710938  0.99163     3613.00000 0.8974       1.025823       0.102582
  15.025   0.1303710938  0.99124     3613.50000 0.8980       1.020474       0.102047
  14.252   0.1303710938  0.99047     3614.00000 0.8985       1.014616       0.101462
  13.371   0.1303710938  0.98937     3614.50000 0.8991       1.008732       0.100873
  12.420   0.1303710938  0.98798     3615.00000 0.8997       1.003304       0.100330
  11.445   0.1303710938  0.98639     3615.50000 0.9001       0.998777       0.099877
  10.499   0.1303710938  0.98471     3616.00000 0.9004       0.995528       0.099552
   9.639   0.1303710938  0.98300     3616.50000 0.9006       0.993831       0.099382
   8.920   0.1303710938  0.98134     3617.00000 0.9006       0.993823       0.099381
   8.393   0.1303710938  0.97979     3617.50000 0.9005       0.995479       0.099545
   8.101   0.1303710938  0.97839     3618.00000 0.9001       0.998596       0.099856
   8.068   0.1303710938  0.97718     3618.50000 0.8997       1.002774       0.100273
   8.294   0.1303710938  0.97616     3619.00000 0.8993       1.007433       0.100738
   8.750   0.1303710938  0.97534     3619.50000 0.8988       1.011839       0.101178
   9.379   0.1303710938  0.97469     3620.00000 0.8985       1.015194       0.101513
  10.107   0.1303710938  0.97417     3620.50000 0.8983       1.016773       0.101672
  10.854   0.1303710938  0.97370     3621.00000 0.8984       1.016076       0.101603
  11.555   0.1303710938  0.97319     3621.50000 0.8987       1.012949       0.101292
  12.167   0.1303710938  0.97250     3622.00000 0.8992       1.007597       0.100758
  12.673   0.1303710938  0.97146     3622.50000 0.9000       1.000500       0.100049
