  23.062   0.0932617188  0.94358     3021.00000 0.8868       1.131895       0.113188
  22.718   0.0932617188  0.94954     3021.50000 0.8841       1.159400       0.115939
  22.375   0.0932617188  0.95565     3022.00000 0.8814       1.185810       0.118581
  22.052   0.0932617188  0.96153     3022.50000 0.8789       1.210504       0.121050
  21.771   0.0932617188  0.96689     3023.00000 0.8767       1.232857       0.123286
  21.558   0.0932617188  0.97149     3023.50000 0.8748       1.252238       0.125224
  21.440   0.0932617188  0.97523     3024.00000 0.8732       1.268028       0.126803
  21.448   0.0932617188  0.97810     3024.50000 0.8720       1.279652       0.127965
  21.609   0.0932617188  0.98017     3025.00000 0.8713       1.286648       0.128664
  21.943   0.0932617188  0.98157     3025.50000 0.8711       1.288749       0.128874
  22.460   0.0932617188  0.98242     3026.00000 0.8714       1.285964       0.128594
  23.156   0.0932617188  0.98288     3026.50000 0.8721       1.278630       0.127860
  24.005   0.0932617188  0.98306     3027.00000 0.8733       1.267394       0.126735
  24.963   0.0932617188  0.98307     3027.50000 0.8747       1.253129       0.125307
  25.974   0.0932617188  0.98299     3028.00000 0.8763       1.236795       0.123673
  26.972   0.0932617188  0.98286     3028.50000 0.8781       1.219306       0.121923
  27.890   0.0932617188  0.98272     3029.00000 0.8799       1.201428       0.120136
  28.667   0.0932617188  0.98259     3029.50000 0.8816       1.183736       0.118367
  29.254   0.0932617188  0.98246     3030.00000 0.8833       1.166628       0.116656
  29.613   0.0932617188  0.98233     3030.50000 0.8850       1.150368       0.115031
  29.718   0.0932617188  0.98220     3031.00000 0.8865       1.135132       0.113508
  29.557   0.0932617188  0.98206     3031.50000 0.8879       1.121054       0.112101
  29.126   0.0932617188  0.98191     3032.00000 0.8892       1.108253       0.110821
  28.431   0.0932617188  0.98175     3032.50000 0.8903       1.096836       0.109680
  27.485   0.0932617188  0.98158     3033.00000 0.8913       1.086903       0.108687
  26.313   0.0932617188  0.98142     3033.50000 0.8922       1.078526       0.107850
  24.944   0.0932617188  0.98125     3034.00000 0.8928       1.071721       0.107169
  23.417   0.0932617188  0.98108     3034.50000 0.8934       1.066422       0.106639
  21.784   0.0932617188  0.98092     3035.00000 0.8938       1.062450       0.106242
  20.102   0.0932617188  0.98075     3035.50000 0.8941       1.059485       0.105945
  18.443   0.0932617188  0.98056     3036.00000 0.8943       1.057059       0.105703
  16.888   0.0932617188  0.98036     3036.50000 0.8945       1.054584       0.105454
  15.528   0.0932617188  0.98014     3037.00000 0.8949       1.051427       0.105138
  14.459   0.0932617188  0.97991     3037.50000 0.8953       1.047060       0.104700
  20.384   0.0932617188  0.97990     3042.00000 0.8955       1.044917       0.104484
  21.265   0.0932617188  0.98011     3042.50000 0.8942       1.058403       0.105834
  21.949   0.0932617188  0.98026     3043.00000 0.8928       1.072463       0.107242
  22.453   0.0932617188  0.98031     3043.50000 0.8914       1.086134       0.108610
  22.800   0.0932617188  0.98027     3044.00000 0.8901       1.098665       0.109864
  23.017   0.0932617188  0.98012     3044.50000 0.8890       1.109516       0.110950
  23.123   0.0932617188  0.97986     3045.00000 0.8882       1.118320       0.111831
  23.135   0.0932617188  0.97949     3045.50000 0.8875       1.124849       0.112484
  23.064   0.0932617188  0.97901     3046.00000 0.8871       1.128992       0.112898
  22.918   0.0932617188  0.97844     3046.50000 0.8869       1.130728       0.113071
  22.702   0.0932617188  0.97779     3047.00000 0.8870       1.130115       0.113009
  22.422   0.0932617188  0.97707     3047.50000 0.8873       1.127277       0.112724
  22.085   0.0932617188  0.97631     3048.00000 0.8878       1.122396       0.112234
  21.700   0.0932617188  0.97552     3048.50000 0.8884       1.115700       0.111561
  18.580   0.0932617188  0.98627     3060.50000 0.9012       0.987948       0.098782
  18.848   0.0932617188  0.98606     3061.00000 0.8999       1.000664       0.100056
  19.112   0.0932617188  0.98580     3061.50000 0.8986       1.013868       0.101378
  19.348   0.0932617188  0.98545     3062.00000 0.8973       1.027100       0.102703
  19.535   0.0932617188  0.98497     3062.50000 0.8960       1.039891       0.103983
  19.650   0.0932617188  0.98435     3063.00000 0.8948       1.051778       0.105173
  19.674   0.0932617188  0.98362     3063.50000 0.8938       1.062332       0.106229
  19.592   0.0932617188  0.98284     3064.00000 0.8929       1.071174       0.107114
  19.392   0.0932617188  0.98208     3064.50000 0.8922       1.078006       0.107797
  19.071   0.0932617188  0.98139     3065.00000 0.8917       1.082626       0.108259
  18.634   0.0932617188  0.98081     3065.50000 0.8915       1.084949       0.108492
  18.094   0.0932617188  0.98033     3066.00000 0.8915       1.085005       0.108497
  17.476   0.0932617188  0.97995     3066.50000 0.8917       1.082930       0.108288
  16.811   0.0932617188  0.97965     3067.00000 0.8921       1.078944       0.107888
  16.137   0.0932617188  0.97938     3067.50000 0.8927       1.073323       0.107324
  15.493   0.0932617188  0.97913     3068.00000 0.8934       1.066365       0.106625
  14.914   0.0932617188  0.97885     3068.50000 0.8942       1.058371       0.105823
  27.483   0.0932617188  0.97833     3098.00000 0.8898       1.102304       0.110215
  27.603   0.0932617188  0.97933     3098.50000 0.8883       1.117594       0.111746
  27.591   0.0932617188  0.98017     3099.00000 0.8870       1.129667       0.112956
  27.455   0.0932617188  0.98085     3099.50000 0.8862       1.138262       0.113817
  27.208   0.0932617188  0.98139     3100.00000 0.8857       1.143404       0.114332
  26.872   0.0932617188  0.98179     3100.50000 0.8855       1.145379       0.114531
  26.475   0.0932617188  0.98208     3101.00000 0.8855       1.144670       0.114460
  26.047   0.0932617188  0.98227     3101.50000 0.8858       1.141870       0.114180
  25.619   0.0932617188  0.98238     3102.00000 0.8862       1.137606       0.113754
  25.220   0.0932617188  0.98243     3102.50000 0.8868       1.132469       0.113239
  24.879   0.0932617188  0.98244     3103.00000 0.8873       1.126971       0.112688
  24.621   0.0932617188  0.98241     3103.50000 0.8879       1.121526       0.112142
  24.465   0.0932617188  0.98236     3104.00000 0.8884       1.116435       0.111631
  24.429   0.0932617188  0.98228     3104.50000 0.8888       1.111901       0.111175
  33.461   0.0932617188  0.97940     3112.50000 0.8954       1.046027       0.104588
  33.394   0.0932617188  0.97982     3113.00000 0.8961       1.039119       0.103901
  33.195   0.0932617188  0.98029     3113.50000 0.8967       1.033427       0.103334
  32.896   0.0932617188  0.98079     3114.00000 0.8971       1.029382       0.102932
  32.532   0.0932617188  0.98126     3114.50000 0.8973       1.027314       0.102727
  32.140   0.0932617188  0.98166     3115.00000 0.8973       1.027444       0.102741
  31.755   0.0932617188  0.98197     3115.50000 0.8970       1.029876       0.102985
  31.406   0.0932617188  0.98217     3116.00000 0.8965       1.034613       0.103459
  31.118   0.0932617188  0.98225     3116.50000 0.8958       1.041571       0.104156
  30.910   0.0932617188  0.98222     3117.00000 0.8949       1.050595       0.105058
  30.793   0.0932617188  0.98211     3117.50000 0.8939       1.061471       0.106146
  30.771   0.0932617188  0.98196     3118.00000 0.8926       1.073941       0.107393
  30.843   0.0932617188  0.98180     3118.50000 0.8912       1.087709       0.108770
  31.003   0.0932617188  0.98168     3119.00000 0.8898       1.102442       0.110243
  31.237   0.0932617188  0.98162     3119.50000 0.8882       1.117782       0.111777
  31.532   0.0932617188  0.98162     3120.00000 0.8867       1.133342       0.113333
  31.869   0.0932617188  0.98165     3120.50000 0.8851       1.148716       0.114871
  32.228   0.0932617188  0.98166     3121.00000 0.8837       1.163494       0.116349
  32.588   0.0932617188  0.98158     3121.50000 0.8823       1.177267       0.117726
  32.928   0.0932617188  0.98135     3122.00000 0.8810       1.189657       0.118965
  33.227   0.0932617188  0.98093     3122.50000 0.8800       1.200328       0.120033
  33.464   0.0932617188  0.98033     3123.00000 0.8791       1.209019       0.120902
  33.621   0.0932617188  0.97961     3123.50000 0.8784       1.215558       0.121556
  33.682   0.0932617188  0.97890     3124.00000 0.8780       1.219882       0.121988
  33.629   0.0932617188  0.97830     3124.50000 0.8778       1.222049       0.122205
  33.452   0.0932617188  0.97791     3125.00000 0.8778       1.222237       0.122223
  33.139   0.0932617188  0.97777     3125.50000 0.8779       1.220742       0.122073
  32.685   0.0932617188  0.97787     3126.00000 0.8782       1.217965       0.121795
  32.088   0.0932617188  0.97812     3126.50000 0.8786       1.214385       0.121436
  31.352   0.0932617188  0.97838     3127.00000 0.8789       1.210536       0.121050
  30.490   0.0932617188  0.97849     3127.50000 0.8793       1.206961       0.120691
  29.520   0.0932617188  0.97828     3128.00000 0.8796       1.204179       0.120412
  28.471   0.0932617188  0.97764     3128.50000 0.8797       1.202624       0.120255
  27.382   0.0932617188  0.97649     3129.00000 0.8797       1.202609       0.120253
  26.297   0.0932617188  0.97479     3129.50000 0.8796       1.204278       0.120419
  25.267   0.0932617188  0.97257     3130.00000 0.8793       1.207587       0.120749
  24.343   0.0932617188  0.96990     3130.50000 0.8788       1.212306       0.121221
  23.575   0.0932617188  0.96690     3131.00000 0.8782       1.218056       0.121796
  23.005   0.0932617188  0.96370     3131.50000 0.8776       1.224368       0.122427
  22.663   0.0932617188  0.96045     3132.00000 0.8769       1.230766       0.123067
  22.568   0.0932617188  0.95731     3132.50000 0.8763       1.236844       0.123675
  22.724   0.0932617188  0.95439     3133.00000 0.8758       1.242326       0.124224
  23.124   0.0932617188  0.95182     3133.50000 0.8753       1.247090       0.124701
  23.747   0.0932617188  0.94966     3134.00000 0.8749       1.251162       0.125108
  22.092   0.0932617188  0.90913     3147.00000 0.8820       1.179704       0.117963
  22.976   0.0932617188  0.90586     3147.50000 0.8820       1.180345       0.118030
  24.346   0.0932617188  0.90269     3148.00000 0.8820       1.180260       0.118024
  26.123   0.0932617188  0.89976     3148.50000 0.8820       1.179718       0.117970
  28.207   0.0932617188  0.89721     3149.00000 0.8821       1.179166       0.117915
  30.490   0.0932617188  0.89515     3149.50000 0.8821       1.179057       0.117904
  32.863   0.0932617188  0.89364     3150.00000 0.8820       1.179716       0.117970
  35.225   0.0932617188  0.89275     3150.50000 0.8819       1.181262       0.118123
  37.489   0.0932617188  0.89246     3151.00000 0.8816       1.183601       0.118356
  39.581   0.0932617188  0.89272     3151.50000 0.8814       1.186461       0.118639
  36.702   0.0932617188  0.87008     3160.50000 0.8788       1.211706       0.121157
  36.867   0.0932617188  0.86766     3161.00000 0.8787       1.212859       0.121276
  37.294   0.0932617188  0.86524     3161.50000 0.8790       1.210475       0.121041
  37.937   0.0932617188  0.86275     3162.00000 0.8796       1.204198       0.120415
  38.750   0.0932617188  0.86012     3162.50000 0.8806       1.193986       0.119395
  39.685   0.0932617188  0.85720     3163.00000 0.8820       1.180064       0.118003
  40.700   0.0932617188  0.85381     3163.50000 0.8837       1.162863       0.116282
  41.760   0.0932617188  0.84966     3164.00000 0.8857       1.142953       0.114290
  42.835   0.0932617188  0.84440     3164.50000 0.8879       1.120991       0.112092
  43.904   0.0932617188  0.83759     3165.00000 0.8902       1.097681       0.109759
  44.948   0.0932617188  0.82875     3165.50000 0.8926       1.073741       0.107362
   3.760   0.0932617188  0.91525     3267.00000 0.9123       0.876724       0.087665
   5.217   0.0932617188  0.91683     3267.50000 0.9162       0.837596       0.083756
   7.094   0.0932617188  0.91803     3268.00000 0.9195       0.805441       0.080542
   9.339   0.0932617188  0.91889     3268.50000 0.9218       0.781823       0.078180
  11.824   0.0932617188  0.91934     3269.00000 0.9232       0.768135       0.076811
  14.347   0.0932617188  0.91925     3269.50000 0.9235       0.765333       0.076530
  16.659   0.0932617188  0.91840     3270.00000 0.9226       0.773687       0.077364
  18.511   0.0932617188  0.91658     3270.50000 0.9207       0.792657       0.079256
  -0.535   0.0932617188  0.82471     3279.00000 0.8970       1.030229       0.103015
   1.279   0.0932617188  0.82189     3279.50000 0.9013       0.986974       0.098696
   3.740   0.0932617188  0.81975     3280.00000 0.9054       0.945871       0.094587
   6.744   0.0932617188  0.81856     3280.50000 0.9090       0.909694       0.090968
  10.120   0.0932617188  0.81833     3281.00000 0.9120       0.880505       0.088046
  13.638   0.0932617188  0.81887     3281.50000 0.9141       0.859377       0.085932
  17.039   0.0932617188  0.81992     3282.00000 0.9154       0.846273       0.084621
  14.996   0.0932617188  0.78389     3287.50000 0.9137       0.862602       0.086260
  12.744   0.0932617188  0.77084     3288.00000 0.9135       0.865403       0.086540
  10.904   0.0932617188  0.75878     3288.50000 0.9132       0.868372       0.086837
  65.905   0.0979003906  0.82179     1559.00000 0.8961       1.039299       0.103924
  66.789   0.0979003906  0.81813     1559.50000 0.8808       1.191811       0.119167
  47.651   0.0979003906  0.76797     2739.00000 0.8809       1.191337       0.119133
  46.153   0.0979003906  0.79311     2739.50000 0.8828       1.172349       0.117234
  44.692   0.0979003906  0.81569     2740.00000 0.8845       1.154757       0.115471
  43.317   0.0979003906  0.83516     2740.50000 0.8860       1.140122       0.114002
  -1.044   0.0979003906  0.76266     2932.50000 0.9327       0.672597       0.067259
  -2.609   0.0979003906  0.77552     2933.00000 0.9322       0.678047       0.067805
  -2.959   0.0979003906  0.78744     2933.50000 0.9313       0.687433       0.068743
  -2.198   0.0979003906  0.79867     2934.00000 0.9299       0.700521       0.070052
  -0.490   0.0979003906  0.80940     2934.50000 0.9282       0.717796       0.071779
   1.955   0.0979003906  0.81971     2935.00000 0.9260       0.740135       0.074013
   4.893   0.0979003906  0.82958     2935.50000 0.9232       0.768415       0.076841
   8.064   0.0979003906  0.83894     2936.00000 0.9197       0.803123       0.080312
  11.223   0.0979003906  0.84765     2936.50000 0.9156       0.844051       0.084405
  14.167   0.0979003906  0.85556     2937.00000 0.9110       0.890171       0.089017
  16.755   0.0979003906  0.86252     2937.50000 0.9060       0.939702       0.093970
  18.909   0.0979003906  0.86836     2938.00000 0.9010       0.990350       0.099033
  20.611   0.0979003906  0.87292     2938.50000 0.8960       1.039644       0.103961
  21.884   0.0979003906  0.87616     2939.00000 0.8915       1.085269       0.108520
  22.781   0.0979003906  0.87818     2939.50000 0.8875       1.125336       0.112524
  23.368   0.0979003906  0.87926     2940.00000 0.8842       1.158528       0.115839
  23.965   0.0979003906  0.87868     2943.50000 0.8805       1.195059       0.119492
  24.051   0.0979003906  0.87783     2944.00000 0.8819       1.181054       0.118095
  24.200   0.0979003906  0.87702     2944.50000 0.8835       1.165468       0.116539
  27.620   0.0979003906  0.90556     2953.00000 0.8856       1.144291       0.114425
  27.190   0.0979003906  0.90878     2953.50000 0.8855       1.144797       0.114476
  26.574   0.0979003906  0.91393     2954.00000 0.8858       1.142133       0.114211
  25.739   0.0979003906  0.92070     2954.50000 0.8864       1.135940       0.113593
  24.658   0.0979003906  0.92857     2955.00000 0.8874       1.126156       0.112615
  23.324   0.0979003906  0.93686     2955.50000 0.8887       1.113149       0.111315
  21.755   0.0979003906  0.94493     2956.00000 0.8902       1.097761       0.109776
  20.008   0.0979003906  0.95224     2956.50000 0.8919       1.081234       0.108123
  18.185   0.0979003906  0.95842     2957.00000 0.8935       1.064981       0.106498
  16.419   0.0979003906  0.96329     2957.50000 0.8950       1.050284       0.105028
  14.864   0.0979003906  0.96685     2958.00000 0.8962       1.038027       0.103802
  13.658   0.0979003906  0.96928     2958.50000 0.8971       1.028599       0.102859
  12.911   0.0979003906  0.97082     2959.00000 0.8978       1.021972       0.102197
  12.683   0.0979003906  0.97172     2959.50000 0.8982       1.017900       0.101790
  12.987   0.0979003906  0.97219     2960.00000 0.8984       1.016110       0.101611
  13.800   0.0979003906  0.97236     2960.50000 0.8984       1.016439       0.101644
  15.065   0.0979003906  0.97231     2961.00000 0.8981       1.018874       0.101887
  16.705   0.0979003906  0.97208     2961.50000 0.8976       1.023528       0.102352
  18.630   0.0979003906  0.97164     2962.00000 0.8969       1.030570       0.103056
  20.737   0.0979003906  0.97098     2962.50000 0.8960       1.040143       0.104013
  22.918   0.0979003906  0.97006     2963.00000 0.8948       1.052268       0.105226
  25.064   0.0979003906  0.96888     2963.50000 0.8933       1.066772       0.106677
  27.069   0.0979003906  0.96746     2964.00000 0.8917       1.083239       0.108324
  28.833   0.0979003906  0.96589     2964.50000 0.8899       1.101001       0.110100
  30.276   0.0979003906  0.96426     2965.00000 0.8881       1.119175       0.111916
  31.333   0.0979003906  0.96270     2965.50000 0.8863       1.136744       0.113670
  31.966   0.0979003906  0.96132     2966.00000 0.8847       1.152666       0.115259
  32.160   0.0979003906  0.96019     2966.50000 0.8834       1.165991       0.116588
  31.930   0.0979003906  0.95937     2967.00000 0.8824       1.175953       0.117580
  27.892   0.0979003906  0.95899     2969.00000 0.8826       1.174585       0.117444
  26.533   0.0979003906  0.95939     2969.50000 0.8837       1.163504       0.116340
  25.233   0.0979003906  0.95985     2970.00000 0.8852       1.148319       0.114826
  24.083   0.0979003906  0.96028     2970.50000 0.8871       1.129319       0.112930
  23.163   0.0979003906  0.96063     2971.00000 0.8893       1.106989       0.110699
  22.534   0.0979003906  0.96086     2971.50000 0.8918       1.082070       0.108206
  22.235   0.0979003906  0.96095     2972.00000 0.8944       1.055587       0.105555
  22.278   0.0979003906  0.96087     2972.50000 0.8971       1.028815       0.102873
  22.646   0.0979003906  0.96054     2973.00000 0.8997       1.003170       0.100303
  28.678   0.0979003906  0.91266     2977.50000 0.9042       0.958397       0.095834
  28.609   0.0979003906  0.90450     2978.00000 0.9027       0.973247       0.097322
  28.372   0.0979003906  0.89754     2978.50000 0.9010       0.990251       0.099025
  27.992   0.0979003906  0.89204     2979.00000 0.8991       1.008910       0.100891
  27.491   0.0979003906  0.88806     2979.50000 0.8971       1.028763       0.102874
  26.881   0.0979003906  0.88545     2980.00000 0.8951       1.049383       0.104931
  26.168   0.0979003906  0.88393     2980.50000 0.8930       1.070367       0.107023
  15.098   0.0979003906  0.89045     2987.50000 0.8732       1.267813       0.126773
  16.165   0.0979003906  0.89286     2988.00000 0.8735       1.264660       0.126464
  17.445   0.0979003906  0.89521     2988.50000 0.8742       1.257876       0.125787
  18.823   0.0979003906  0.89740     2989.00000 0.8753       1.247472       0.124747
  20.195   0.0979003906  0.89937     2989.50000 0.8767       1.233414       0.123340
  21.469   0.0979003906  0.90106     2990.00000 0.8784       1.215656       0.121563
  22.571   0.0979003906  0.90246     2990.50000 0.8806       1.194205       0.119417
  23.442   0.0979003906  0.90358     2991.00000 0.8831       1.169184       0.116914
  24.029   0.0979003906  0.90444     2991.50000 0.8859       1.140887       0.114085
  24.285   0.0979003906  0.90508     2992.00000 0.8890       1.109804       0.110978
  24.160   0.0979003906  0.90551     2992.50000 0.8923       1.076652       0.107664
  23.599   0.0979003906  0.90575     2993.00000 0.8958       1.042385       0.104238
  22.546   0.0979003906  0.90578     2993.50000 0.8992       1.008226       0.100823
  20.942   0.0979003906  0.90560     2994.00000 0.9024       0.975689       0.097568
  18.739   0.0979003906  0.90522     2994.50000 0.9053       0.946612       0.094659
  15.923   0.0979003906  0.90468     2995.00000 0.9077       0.923130       0.092308
  12.540   0.0979003906  0.90407     2995.50000 0.9093       0.907543       0.090745
  18.930   0.0979003906  0.91584     3004.00000 0.8828       1.171899       0.117182
  20.520   0.0979003906  0.91609     3004.50000 0.8815       1.184850       0.118478
  21.784   0.0979003906  0.91613     3005.00000 0.8804       1.195583       0.119552
  22.738   0.0979003906  0.91593     3005.50000 0.8796       1.203639       0.120359
  23.398   0.0979003906  0.91546     3006.00000 0.8791       1.208776       0.120873
  23.782   0.0979003906  0.91471     3006.50000 0.8789       1.210947       0.121091
  23.903   0.0979003906  0.91368     3007.00000 0.8790       1.210283       0.121025
  25.488   0.0979003906  0.90216     3019.00000 0.8991       1.009572       0.100946
  25.212   0.0979003906  0.90894     3019.50000 0.8961       1.038855       0.103878
  24.835   0.0979003906  0.91714     3020.00000 0.8930       1.069716       0.106967
  24.377   0.0979003906  0.92615     3020.50000 0.8899       1.101441       0.110142
  23.854   0.0979003906  0.93529     3021.00000 0.8867       1.133372       0.113336
  23.285   0.0979003906  0.94391     3021.50000 0.8835       1.164888       0.116489
  22.688   0.0979003906  0.95152     3022.00000 0.8805       1.195393       0.119539
  22.086   0.0979003906  0.95780     3022.50000 0.8776       1.224278       0.122428
  21.507   0.0979003906  0.96264     3023.00000 0.8749       1.250885       0.125088
  20.989   0.0979003906  0.96613     3023.50000 0.8726       1.274464       0.127446
  20.577   0.0979003906  0.96848     3024.00000 0.8706       1.294150       0.129415
  20.326   0.0979003906  0.96993     3024.50000 0.8691       1.308984       0.130898
  20.294   0.0979003906  0.97074     3025.00000 0.8682       1.318008       0.131801
  20.534   0.0979003906  0.97110     3025.50000 0.8680       1.320468       0.132046
  21.087   0.0979003906  0.97116     3026.00000 0.8684       1.316056       0.131603
  21.958   0.0979003906  0.97106     3026.50000 0.8695       1.305133       0.130508
  23.120   0.0979003906  0.97089     3027.00000 0.8711       1.288782       0.128871
  24.501   0.0979003906  0.97071     3027.50000 0.8731       1.268616       0.126852
  25.997   0.0979003906  0.97056     3028.00000 0.8754       1.246415       0.124630
  27.489   0.0979003906  0.97047     3028.50000 0.8776       1.223750       0.122363
  28.863   0.0979003906  0.97040     3029.00000 0.8798       1.201758       0.120165
  30.020   0.0979003906  0.97034     3029.50000 0.8819       1.181104       0.118101
  30.890   0.0979003906  0.97027     3030.00000 0.8838       1.162089       0.116201
  31.426   0.0979003906  0.97017     3030.50000 0.8855       1.144798       0.114473
  31.604   0.0979003906  0.97005     3031.00000 0.8871       1.129230       0.112918
  31.417   0.0979003906  0.96993     3031.50000 0.8885       1.115383       0.111535
  30.871   0.0979003906  0.96984     3032.00000 0.8897       1.103292       0.110327
  29.980   0.0979003906  0.96979     3032.50000 0.8907       1.093031       0.109301
  28.765   0.0979003906  0.96978     3033.00000 0.8915       1.084696       0.108468
  27.257   0.0979003906  0.96982     3033.50000 0.8922       1.078361       0.107835
  25.493   0.0979003906  0.96988     3034.00000 0.8926       1.074039       0.107403
  23.519   0.0979003906  0.96992     3034.50000 0.8928       1.071619       0.107161
  21.392   0.0979003906  0.96990     3035.00000 0.8929       1.070800       0.107079
  19.182   0.0979003906  0.96981     3035.50000 0.8929       1.071027       0.107102
  16.974   0.0979003906  0.96964     3036.00000 0.8929       1.071446       0.107143
  14.874   0.0979003906  0.96940     3036.50000 0.8929       1.070892       0.107087
  13.010   0.0979003906  0.96914     3037.00000 0.8932       1.067991       0.106796
  21.511   0.0979003906  0.96992     3042.00000 0.8970       1.030048       0.102995
  22.502   0.0979003906  0.97036     3042.50000 0.8951       1.049417       0.104935
  23.159   0.0979003906  0.97068     3043.00000 0.8931       1.068676       0.106864
  23.552   0.0979003906  0.97088     3043.50000 0.8914       1.086483       0.108646
  23.746   0.0979003906  0.97096     3044.00000 0.8898       1.101995       0.110198
  23.791   0.0979003906  0.97094     3044.50000 0.8885       1.114731       0.111473
  23.723   0.0979003906  0.97080     3045.00000 0.8876       1.124462       0.112446
  23.565   0.0979003906  0.97054     3045.50000 0.8869       1.131128       0.113113
  23.331   0.0979003906  0.97014     3046.00000 0.8865       1.134791       0.113479
  23.029   0.0979003906  0.96958     3046.50000 0.8864       1.135595       0.113559
  22.663   0.0979003906  0.96886     3047.00000 0.8866       1.133755       0.113374
  22.239   0.0979003906  0.96799     3047.50000 0.8870       1.129545       0.112952
  21.761   0.0979003906  0.96698     3048.00000 0.8877       1.123286       0.112325
  21.241   0.0979003906  0.96590     3048.50000 0.8885       1.115340       0.111527
  18.997   0.0979003906  0.98421     3060.50000 0.9012       0.988182       0.098805
  19.359   0.0979003906  0.98471     3061.00000 0.8997       1.002904       0.100280
  19.721   0.0979003906  0.98480     3061.50000 0.8982       1.018153       0.101807
  20.054   0.0979003906  0.98443     3062.00000 0.8967       1.033383       0.103332
  20.326   0.0979003906  0.98369     3062.50000 0.8952       1.048029       0.104798
  20.506   0.0979003906  0.98270     3063.00000 0.8939       1.061532       0.106149
  20.566   0.0979003906  0.98162     3063.50000 0.8927       1.073360       0.107333
  20.479   0.0979003906  0.98054     3064.00000 0.8917       1.083044       0.108302
  20.227   0.0979003906  0.97953     3064.50000 0.8910       1.090209       0.109019
  19.796   0.0979003906  0.97863     3065.00000 0.8905       1.094625       0.109461
  19.188   0.0979003906  0.97785     3065.50000 0.8904       1.096224       0.109621
  18.422   0.0979003906  0.97721     3066.00000 0.8905       1.095118       0.109510
  17.531   0.0979003906  0.97669     3066.50000 0.8908       1.091571       0.109155
  16.569   0.0979003906  0.97628     3067.00000 0.8914       1.085957       0.108592
  15.599   0.0979003906  0.97593     3067.50000 0.8921       1.078681       0.107862
  14.688   0.0979003906  0.97561     3068.00000 0.8930       1.070129       0.107004
  13.895   0.0979003906  0.97526     3068.50000 0.8940       1.060626       0.106050
  28.626   0.0979003906  0.97613     3098.00000 0.8873       1.126826       0.112667
  28.771   0.0979003906  0.97709     3098.50000 0.8855       1.145099       0.114497
  28.708   0.0979003906  0.97788     3099.00000 0.8842       1.158058       0.115796
  28.445   0.0979003906  0.97851     3099.50000 0.8835       1.165366       0.116529
  28.004   0.0979003906  0.97896     3100.00000 0.8833       1.167273       0.116722
  27.422   0.0979003906  0.97924     3100.50000 0.8836       1.164538       0.116449
  26.743   0.0979003906  0.97935     3101.00000 0.8842       1.158250       0.115821
  26.016   0.0979003906  0.97932     3101.50000 0.8850       1.149631       0.114959
  25.290   0.0979003906  0.97915     3102.00000 0.8860       1.139848       0.113981
  24.611   0.0979003906  0.97886     3102.50000 0.8870       1.129901       0.112985
  24.019   0.0979003906  0.97846     3103.00000 0.8879       1.120564       0.112050
  23.549   0.0979003906  0.97798     3103.50000 0.8888       1.112379       0.111230
  23.229   0.0979003906  0.97745     3104.00000 0.8894       1.105687       0.110558
  23.081   0.0979003906  0.97689     3104.50000 0.8899       1.100658       0.110052
  34.933   0.0979003906  0.97143     3112.50000 0.8956       1.043815       0.104367
  34.709   0.0979003906  0.97188     3113.00000 0.8967       1.032613       0.103251
  34.293   0.0979003906  0.97251     3113.50000 0.8977       1.023087       0.102302
  33.739   0.0979003906  0.97325     3114.00000 0.8984       1.015902       0.101585
  33.104   0.0979003906  0.97402     3114.50000 0.8989       1.011516       0.101148
  32.442   0.0979003906  0.97471     3115.00000 0.8990       1.010182       0.101016
  31.805   0.0979003906  0.97524     3115.50000 0.8988       1.011977       0.101196
  31.236   0.0979003906  0.97554     3116.00000 0.8983       1.016833       0.101682
  30.769   0.0979003906  0.97557     3116.50000 0.8975       1.024583       0.102457
  30.429   0.0979003906  0.97532     3117.00000 0.8965       1.034984       0.103498
  30.228   0.0979003906  0.97482     3117.50000 0.8952       1.047749       0.104774
  30.172   0.0979003906  0.97413     3118.00000 0.8937       1.062555       0.106255
  30.257   0.0979003906  0.97332     3118.50000 0.8921       1.079045       0.107904
  30.472   0.0979003906  0.97249     3119.00000 0.8903       1.096829       0.109682
  30.799   0.0979003906  0.97173     3119.50000 0.8885       1.115476       0.111547
  31.217   0.0979003906  0.97113     3120.00000 0.8866       1.134508       0.113450
  31.700   0.0979003906  0.97073     3120.50000 0.8847       1.153401       0.115339
  32.220   0.0979003906  0.97054     3121.00000 0.8828       1.171594       0.117158
  32.749   0.0979003906  0.97050     3121.50000 0.8812       1.188506       0.118850
  33.258   0.0979003906  0.97045     3122.00000 0.8796       1.203573       0.120357
  33.720   0.0979003906  0.97022     3122.50000 0.8784       1.216283       0.121628
  34.109   0.0979003906  0.96961     3123.00000 0.8774       1.226220       0.122622
  34.401   0.0979003906  0.96852     3123.50000 0.8767       1.233109       0.123311
  34.577   0.0979003906  0.96697     3124.00000 0.8763       1.236845       0.123684
  34.616   0.0979003906  0.96516     3124.50000 0.8762       1.237511       0.123751
  34.502   0.0979003906  0.96334     3125.00000 0.8765       1.235386       0.123538
  34.223   0.0979003906  0.96181     3125.50000 0.8769       1.230933       0.123092
  33.766   0.0979003906  0.96078     3126.00000 0.8775       1.224769       0.122475
  33.125   0.0979003906  0.96033     3126.50000 0.8782       1.217637       0.121760
  32.300   0.0979003906  0.96040     3127.00000 0.8790       1.210351       0.121030
  31.296   0.0979003906  0.96076     3127.50000 0.8796       1.203755       0.120369
  30.131   0.0979003906  0.96113     3128.00000 0.8801       1.198650       0.119857
  28.835   0.0979003906  0.96118     3128.50000 0.8804       1.195729       0.119563
  27.452   0.0979003906  0.96066     3129.00000 0.8805       1.195491       0.119537
  26.040   0.0979003906  0.95937     3129.50000 0.8802       1.198161       0.119803
  24.669   0.0979003906  0.95724     3130.00000 0.8797       1.203632       0.120350
  23.414   0.0979003906  0.95431     3130.50000 0.8789       1.211448       0.121131
  22.350   0.0979003906  0.95066     3131.00000 0.8779       1.220841       0.122071
  21.542   0.0979003906  0.94647     3131.50000 0.8769       1.230860       0.123074
  21.041   0.0979003906  0.94194     3132.00000 0.8760       1.240530       0.124042
  20.876   0.0979003906  0.93729     3132.50000 0.8751       1.249037       0.124894
  21.057   0.0979003906  0.93274     3133.00000 0.8744       1.255868       0.125579
  21.574   0.0979003906  0.92850     3133.50000 0.8739       1.260872       0.126081
  22.398   0.0979003906  0.92474     3134.00000 0.8736       1.264229       0.126417
  23.486   0.0979003906  0.92161     3134.50000 0.8734       1.266356       0.126631
  17.759   0.0979003906  0.88177     3147.00000 0.8803       1.196843       0.119682
  19.176   0.0979003906  0.87745     3147.50000 0.8798       1.202191       0.120219
  21.301   0.0979003906  0.87302     3148.00000 0.8795       1.204899       0.120490
  23.972   0.0979003906  0.86867     3148.50000 0.8794       1.205868       0.120586
  27.006   0.0979003906  0.86461     3149.00000 0.8794       1.206215       0.120620
  30.224   0.0979003906  0.86101     3149.50000 0.8793       1.206866       0.120685
  33.463   0.0979003906  0.85806     3150.00000 0.8792       1.208324       0.120832
  36.590   0.0979003906  0.85591     3150.50000 0.8789       1.210631       0.121063
  39.500   0.0979003906  0.85470     3151.00000 0.8787       1.213443       0.121344
  42.115   0.0979003906  0.85449     3151.50000 0.8784       1.216164       0.121615
  33.950   0.0979003906  0.82377     3160.50000 0.8768       1.231812       0.123173
  34.561   0.0979003906  0.82075     3161.00000 0.8759       1.240753       0.124072
  35.538   0.0979003906  0.81826     3161.50000 0.8756       1.243733       0.124372
  36.779   0.0979003906  0.81620     3162.00000 0.8760       1.240378       0.124037
  38.185   0.0979003906  0.81448     3162.50000 0.8769       1.230860       0.123086
  39.674   0.0979003906  0.81296     3163.00000 0.8784       1.215737       0.121573
  41.180   0.0979003906  0.81149     3163.50000 0.8804       1.195802       0.119580
  42.656   0.0979003906  0.80992     3164.00000 0.8828       1.171975       0.117196
  44.069   0.0979003906  0.80809     3164.50000 0.8855       1.145214       0.114519
  45.399   0.0979003906  0.80578     3165.00000 0.8884       1.116474       0.111642
  46.633   0.0979003906  0.80270     3165.50000 0.8913       1.086681       0.108660
  -2.152   0.0979003906  0.83552     3266.50000 0.9076       0.924500       0.092444
  -0.950   0.0979003906  0.83646     3267.00000 0.9136       0.864425       0.086441
   1.012   0.0979003906  0.83649     3267.50000 0.9191       0.808839       0.080884
   3.856   0.0979003906  0.83596     3268.00000 0.9239       0.760581       0.076058
   7.599   0.0979003906  0.83529     3268.50000 0.9277       0.723076       0.072307
  12.070   0.0979003906  0.83485     3269.00000 0.9300       0.699904       0.069990
  16.853   0.0979003906  0.83475     3269.50000 0.9306       0.693928       0.069393
  21.349   0.0979003906  0.83474     3270.00000 0.9294       0.706269       0.070627
  24.959   0.0979003906  0.83431     3270.50000 0.9264       0.735786       0.073576
  80.030   0.1025390625  0.75546     1553.00000 0.7590       2.410669       0.241048
  67.620   0.1025390625  0.83932     1559.00000 0.8867       1.132786       0.113269
  68.125   0.1025390625  0.83312     1559.50000 0.8736       1.264171       0.126399
  48.202   0.1025390625  0.81117     2738.50000 0.8769       1.231217       0.123116
  46.795   0.1025390625  0.83049     2739.00000 0.8795       1.205433       0.120543
  45.275   0.1025390625  0.84597     2739.50000 0.8822       1.177649       0.117764
  43.700   0.1025390625  0.85785     2740.00000 0.8849       1.150788       0.115073
  -7.721   0.1025390625  0.75877     2934.00000 0.9315       0.684663       0.068466
  -5.255   0.1025390625  0.77034     2934.50000 0.9301       0.699031       0.069902
  -1.848   0.1025390625  0.78199     2935.00000 0.9281       0.718746       0.071873
   2.187   0.1025390625  0.79355     2935.50000 0.9254       0.745862       0.074584
   6.492   0.1025390625  0.80465     2936.00000 0.9218       0.781867       0.078185
  10.706   0.1025390625  0.81480     2936.50000 0.9173       0.827077       0.082707
  14.526   0.1025390625  0.82338     2937.00000 0.9120       0.880338       0.088034
  17.750   0.1025390625  0.82978     2937.50000 0.9061       0.939101       0.093910
  20.288   0.1025390625  0.83357     2938.00000 0.9000       0.999880       0.099987
  22.141   0.1025390625  0.83479     2938.50000 0.8941       1.058897       0.105886
  23.380   0.1025390625  0.83407     2939.00000 0.8887       1.112725       0.111265
  24.107   0.1025390625  0.83246     2939.50000 0.8841       1.158745       0.115861
  23.596   0.1025390625  0.82902     2944.00000 0.8812       1.187845       0.118772
  23.751   0.1025390625  0.82867     2944.50000 0.8834       1.166065       0.116598
  24.007   0.1025390625  0.82858     2945.00000 0.8856       1.144225       0.114417
  28.097   0.1025390625  0.88715     2953.50000 0.8834       1.165598       0.116555
  27.634   0.1025390625  0.89936     2954.00000 0.8836       1.163871       0.116384
  26.899   0.1025390625  0.91183     2954.50000 0.8843       1.157017       0.115700
  25.824   0.1025390625  0.92360     2955.00000 0.8855       1.144641       0.114464
  24.353   0.1025390625  0.93386     2955.50000 0.8873       1.127055       0.112706
  22.468   0.1025390625  0.94205     2956.00000 0.8894       1.105525       0.110552
  20.218   0.1025390625  0.94796     2956.50000 0.8918       1.082226       0.108221
  17.737   0.1025390625  0.95175     2957.00000 0.8940       1.059799       0.105978
  10.111   0.1025390625  0.95528     2959.00000 0.8990       1.010335       0.101033
   9.731   0.1025390625  0.95523     2959.50000 0.8992       1.007605       0.100760
  10.085   0.1025390625  0.95513     2960.00000 0.8993       1.007058       0.100706
  11.118   0.1025390625  0.95503     2960.50000 0.8992       1.008217       0.100821
  12.744   0.1025390625  0.95492     2961.00000 0.8989       1.011022       0.101101
  14.859   0.1025390625  0.95481     2961.50000 0.8984       1.015741       0.101572
  17.346   0.1025390625  0.95467     2962.00000 0.8977       1.022823       0.102279
  20.077   0.1025390625  0.95444     2962.50000 0.8967       1.032744       0.103271
  22.915   0.1025390625  0.95403     2963.00000 0.8954       1.045850       0.104582
  25.717   0.1025390625  0.95330     2963.50000 0.8938       1.062203       0.106219
  28.336   0.1025390625  0.95211     2964.00000 0.8919       1.081478       0.108147
  30.633   0.1025390625  0.95035     2964.50000 0.8897       1.102908       0.110291
  32.485   0.1025390625  0.94803     2965.00000 0.8875       1.125324       0.112531
  33.797   0.1025390625  0.94528     2965.50000 0.8853       1.147302       0.114726
  34.510   0.1025390625  0.94237     2966.00000 0.8833       1.167366       0.116727
  34.602   0.1025390625  0.93962     2966.50000 0.8816       1.184228       0.118406
  24.073   0.1025390625  0.93628     2970.00000 0.8827       1.172679       0.117256
  22.484   0.1025390625  0.93698     2970.50000 0.8849       1.151204       0.115116
  21.244   0.1025390625  0.93743     2971.00000 0.8875       1.124806       0.112480
  20.436   0.1025390625  0.93759     2971.50000 0.8906       1.094157       0.109415
  20.115   0.1025390625  0.93746     2972.00000 0.8940       1.060509       0.106045
  20.305   0.1025390625  0.93716     2972.50000 0.8974       1.025693       0.102556
  30.473   0.1025390625  0.89791     2977.50000 0.9050       0.950338       0.095026
  30.375   0.1025390625  0.88473     2978.00000 0.9029       0.970590       0.097056
  30.077   0.1025390625  0.87210     2978.50000 0.9007       0.992670       0.099267
  29.626   0.1025390625  0.86106     2979.00000 0.8984       1.015903       0.101590
  29.055   0.1025390625  0.85230     2979.50000 0.8960       1.039701       0.103967
  28.386   0.1025390625  0.84599     2980.00000 0.8937       1.063541       0.106346
  12.909   0.1025390625  0.85238     2987.50000 0.8713       1.286945       0.128689
  14.511   0.1025390625  0.85548     2988.00000 0.8715       1.284666       0.128466
  16.411   0.1025390625  0.85802     2988.50000 0.8721       1.278628       0.127862
  18.428   0.1025390625  0.86001     2989.00000 0.8731       1.268896       0.126886
  20.408   0.1025390625  0.86147     2989.50000 0.8745       1.255318       0.125525
  22.238   0.1025390625  0.86246     2990.00000 0.8762       1.237624       0.123753
  23.836   0.1025390625  0.86309     2990.50000 0.8785       1.215571       0.121546
  25.142   0.1025390625  0.86345     2991.00000 0.8811       1.189067       0.118897
  26.109   0.1025390625  0.86366     2991.50000 0.8842       1.158245       0.115817
  26.692   0.1025390625  0.86380     2992.00000 0.8877       1.123497       0.112345
  26.839   0.1025390625  0.86391     2992.50000 0.8915       1.085490       0.108546
  26.484   0.1025390625  0.86401     2993.00000 0.8955       1.045191       0.104518
  25.541   0.1025390625  0.86403     2993.50000 0.8996       1.003901       0.100390
  23.908   0.1025390625  0.86392     2994.00000 0.9037       0.963345       0.096333
  21.470   0.1025390625  0.86363     2994.50000 0.9074       0.925801       0.092576
  18.126   0.1025390625  0.86315     2995.00000 0.9106       0.894247       0.089415
  22.256   0.1025390625  0.87677     3004.50000 0.8824       1.176480       0.117639
  23.558   0.1025390625  0.87703     3005.00000 0.8813       1.187211       0.118714
  24.487   0.1025390625  0.87732     3005.50000 0.8805       1.195273       0.119522
  25.068   0.1025390625  0.87767     3006.00000 0.8800       1.200472       0.120044
  25.317   0.1025390625  0.87807     3006.50000 0.8797       1.202883       0.120286
  27.005   0.1025390625  0.87932     3019.00000 0.9004       0.995864       0.099576
  26.643   0.1025390625  0.89180     3019.50000 0.8971       1.029214       0.102915
  26.148   0.1025390625  0.90488     3020.00000 0.8936       1.064018       0.106399
  25.541   0.1025390625  0.91722     3020.50000 0.8900       1.099543       0.109953
  24.836   0.1025390625  0.92783     3021.00000 0.8865       1.135166       0.113516
  24.049   0.1025390625  0.93617     3021.50000 0.8830       1.170359       0.117036
  23.194   0.1025390625  0.94217     3022.00000 0.8795       1.204654       0.120465
  22.291   0.1025390625  0.94611     3022.50000 0.8762       1.237594       0.123758
  21.370   0.1025390625  0.94846     3023.00000 0.8731       1.268648       0.126863
  20.476   0.1025390625  0.94971     3023.50000 0.8703       1.297105       0.129708
  19.670   0.1025390625  0.95030     3024.00000 0.8678       1.321944       0.132193
  19.039   0.1025390625  0.95053     3024.50000 0.8658       1.341746       0.134174
  18.687   0.1025390625  0.95057     3025.00000 0.8645       1.354746       0.135475
  18.725   0.1025390625  0.95051     3025.50000 0.8641       1.359128       0.135912
  19.249   0.1025390625  0.95037     3026.00000 0.8646       1.353640       0.135361
  20.309   0.1025390625  0.95018     3026.50000 0.8662       1.338308       0.133823
  21.878   0.1025390625  0.94999     3027.00000 0.8685       1.314828       0.131470
  23.841   0.1025390625  0.94984     3027.50000 0.8714       1.286220       0.128605
  31.777   0.1025390625  0.94993     3029.50000 0.8824       1.175867       0.117573
  32.962   0.1025390625  0.94991     3030.00000 0.8845       1.155143       0.115504
  33.668   0.1025390625  0.94983     3030.50000 0.8863       1.137131       0.113706
  33.888   0.1025390625  0.94975     3031.00000 0.8879       1.121541       0.112150
  33.631   0.1025390625  0.94973     3031.50000 0.8892       1.108212       0.110819
  32.919   0.1025390625  0.94983     3032.00000 0.8903       1.097126       0.109711
  31.780   0.1025390625  0.95005     3032.50000 0.8912       1.088385       0.108838
  30.246   0.1025390625  0.95036     3033.00000 0.8918       1.082147       0.108214
  28.354   0.1025390625  0.95068     3033.50000 0.8921       1.078571       0.107857
  26.146   0.1025390625  0.95095     3034.00000 0.8922       1.077728       0.107773
  23.672   0.1025390625  0.95109     3034.50000 0.8920       1.079512       0.107951
  20.995   0.1025390625  0.95110     3035.00000 0.8916       1.083525       0.108353
  18.189   0.1025390625  0.95099     3035.50000 0.8911       1.088951       0.108895
  15.346   0.1025390625  0.95083     3036.00000 0.8906       1.094410       0.109441
  12.589   0.1025390625  0.95068     3036.50000 0.8902       1.097866       0.109786
  10.076   0.1025390625  0.95058     3037.00000 0.8903       1.096655       0.109665
  23.160   0.1025390625  0.95297     3042.00000 0.8984       1.016026       0.101590
  24.110   0.1025390625  0.95356     3042.50000 0.8956       1.043983       0.104392
  24.596   0.1025390625  0.95392     3043.00000 0.8930       1.069918       0.106989
  24.764   0.1025390625  0.95411     3043.50000 0.8908       1.092372       0.109236
  24.724   0.1025390625  0.95418     3044.00000 0.8889       1.110691       0.111069
  24.546   0.1025390625  0.95422     3044.50000 0.8875       1.124695       0.112469
  24.273   0.1025390625  0.95424     3045.00000 0.8866       1.134471       0.113447
  23.930   0.1025390625  0.95424     3045.50000 0.8860       1.140254       0.114025
  23.527   0.1025390625  0.95417     3046.00000 0.8858       1.142365       0.114236
  23.066   0.1025390625  0.95393     3046.50000 0.8859       1.141178       0.114118
  22.550   0.1025390625  0.95343     3047.00000 0.8863       1.137110       0.113711
  21.979   0.1025390625  0.95263     3047.50000 0.8869       1.130616       0.113061
  21.355   0.1025390625  0.95156     3048.00000 0.8878       1.122190       0.112217
  20.691   0.1025390625  0.95040     3048.50000 0.8888       1.112356       0.111230
  20.003   0.1025390625  0.94936     3049.00000 0.8898       1.101659       0.110156
  19.293   0.1025390625  0.98200     3060.50000 0.9012       0.988377       0.098824
  19.776   0.1025390625  0.98247     3061.00000 0.8995       1.005487       0.100538
  20.268   0.1025390625  0.98229     3061.50000 0.8977       1.023139       0.102305
  20.732   0.1025390625  0.98179     3062.00000 0.8959       1.040702       0.104064
  21.129   0.1025390625  0.98118     3062.50000 0.8943       1.057519       0.105747
  21.420   0.1025390625  0.98049     3063.00000 0.8927       1.072925       0.107289
  21.563   0.1025390625  0.97972     3063.50000 0.8914       1.086273       0.108625
  21.520   0.1025390625  0.97884     3064.00000 0.8903       1.096977       0.109696
  21.255   0.1025390625  0.97782     3064.50000 0.8895       1.104563       0.110455
  20.742   0.1025390625  0.97671     3065.00000 0.8891       1.108735       0.110873
  19.969   0.1025390625  0.97556     3065.50000 0.8891       1.109440       0.110943
  18.952   0.1025390625  0.97443     3066.00000 0.8893       1.106906       0.110690
  17.738   0.1025390625  0.97338     3066.50000 0.8898       1.101603       0.110160
  16.407   0.1025390625  0.97245     3067.00000 0.8906       1.094150       0.109413
  15.065   0.1025390625  0.97164     3067.50000 0.8915       1.085153       0.108512
  13.821   0.1025390625  0.97091     3068.00000 0.8925       1.075086       0.107502
  12.770   0.1025390625  0.97023     3068.50000 0.8936       1.064248       0.106414
  29.960   0.1025390625  0.96944     3098.00000 0.8841       1.158796       0.115862
  30.158   0.1025390625  0.97044     3098.50000 0.8819       1.181293       0.118117
  30.046   0.1025390625  0.97132     3099.00000 0.8805       1.195331       0.119524
  29.637   0.1025390625  0.97205     3099.50000 0.8800       1.200375       0.120032
  28.964   0.1025390625  0.97261     3100.00000 0.8803       1.197072       0.119704
  28.083   0.1025390625  0.97297     3100.50000 0.8813       1.187048       0.118703
