  66.997   0.0793457031  0.92175     3846.50000 0.8874       1.125956       0.112596
  66.944   0.0793457031  0.92348     3847.00000 0.8868       1.132233       0.113223
  66.903   0.0793457031  0.92537     3847.50000 0.8866       1.134289       0.113429
  66.869   0.0793457031  0.92737     3848.00000 0.8868       1.131958       0.113196
  66.837   0.0793457031  0.92944     3848.50000 0.8875       1.125190       0.112519
  66.804   0.0793457031  0.93154     3849.00000 0.8886       1.114059       0.111406
  66.767   0.0793457031  0.93363     3849.50000 0.8901       1.098763       0.109876
  65.570   0.0793457031  0.95185     3856.00000 0.9224       0.775587       0.077559
  65.461   0.0793457031  0.95263     3856.50000 0.9235       0.765349       0.076535
  65.363   0.0793457031  0.95339     3857.00000 0.9240       0.760022       0.076002
  65.283   0.0793457031  0.95413     3857.50000 0.9240       0.759816       0.075982
  65.224   0.0793457031  0.95487     3858.00000 0.9235       0.764812       0.076481
  65.191   0.0793457031  0.95562     3858.50000 0.9225       0.774961       0.077496
  65.186   0.0793457031  0.95638     3859.00000 0.9210       0.790077       0.079008
  65.212   0.0793457031  0.95715     3859.50000 0.9190       0.809851       0.080985
  65.269   0.0793457031  0.95792     3860.00000 0.9166       0.833848       0.083385
  65.356   0.0793457031  0.95868     3860.50000 0.9138       0.861528       0.086152
  65.470   0.0793457031  0.95941     3861.00000 0.9108       0.892255       0.089225
  65.608   0.0793457031  0.96010     3861.50000 0.9075       0.925322       0.092531
  65.768   0.0793457031  0.96071     3862.00000 0.9040       0.959966       0.095995
  65.944   0.0793457031  0.96121     3862.50000 0.9005       0.995389       0.099536
  66.133   0.0793457031  0.96158     3863.00000 0.8969       1.030785       0.103074
  66.331   0.0793457031  0.96180     3863.50000 0.8935       1.065349       0.106529
  66.535   0.0793457031  0.96186     3864.00000 0.8902       1.098306       0.109823
  66.743   0.0793457031  0.96174     3864.50000 0.8871       1.128920       0.112883
  66.952   0.0793457031  0.96146     3865.00000 0.8844       1.156517       0.115640
  67.163   0.0793457031  0.96104     3865.50000 0.8820       1.180491       0.118036
  67.375   0.0793457031  0.96051     3866.00000 0.8800       1.200323       0.120016
  72.527   0.0793457031  0.95466     3874.00000 0.9062       0.938104       0.093799
  73.061   0.0793457031  0.95483     3874.50000 0.9092       0.907762       0.090767
  73.611   0.0793457031  0.95453     3875.00000 0.9120       0.880051       0.087997
  74.172   0.0793457031  0.95344     3875.50000 0.9144       0.855662       0.085560
  74.735   0.0793457031  0.95119     3876.00000 0.9165       0.835206       0.083515
  75.291   0.0793457031  0.94748     3876.50000 0.9181       0.819195       0.081915
  75.832   0.0793457031  0.94212     3877.00000 0.9192       0.808031       0.080800
  76.350   0.0793457031  0.93507     3877.50000 0.9198       0.801993       0.080196
  76.838   0.0793457031  0.92641     3878.00000 0.9199       0.801226       0.080120
  77.292   0.0793457031  0.91632     3878.50000 0.9194       0.805742       0.080572
  77.709   0.0793457031  0.90504     3879.00000 0.9185       0.815419       0.081540
  78.087   0.0793457031  0.89282     3879.50000 0.9170       0.830004       0.082998
  44.207   0.0839843750  0.82369     3709.50000 0.9126       0.874200       0.087409
  44.409   0.0839843750  0.82596     3710.00000 0.9147       0.853541       0.085345
  45.010   0.0839843750  0.82852     3710.50000 0.9164       0.835868       0.083578
  46.028   0.0839843750  0.83119     3711.00000 0.9178       0.822209       0.082213
  47.460   0.0839843750  0.83386     3711.50000 0.9187       0.813517       0.081345
  49.275   0.0839843750  0.83641     3712.00000 0.9189       0.810648       0.081058
  51.420   0.0839843750  0.83878     3712.50000 0.9186       0.814330       0.081427
  53.819   0.0839843750  0.84090     3713.00000 0.9175       0.825116       0.082506
  56.378   0.0839843750  0.84274     3713.50000 0.9157       0.843324       0.084327
  59.001   0.0839843750  0.84429     3714.00000 0.9131       0.868980       0.086893
  61.596   0.0839843750  0.84552     3714.50000 0.9098       0.901763       0.090172
  64.086   0.0839843750  0.84645     3715.00000 0.9059       0.940971       0.094093
  66.413   0.0839843750  0.84709     3715.50000 0.9015       0.985489       0.098545
  68.540   0.0839843750  0.84748     3716.00000 0.8966       1.033782       0.103375
  70.447   0.0839843750  0.84767     3716.50000 0.8916       1.083922       0.108389
  72.127   0.0839843750  0.84770     3717.00000 0.8866       1.133646       0.113362
  73.586   0.0839843750  0.84764     3717.50000 0.8820       1.180506       0.118048
  48.012   0.0839843750  0.84929     3737.00000 0.8935       1.064697       0.106457
  48.281   0.0839843750  0.84938     3737.50000 0.8992       1.008170       0.100809
  48.519   0.0839843750  0.84928     3738.00000 0.9045       0.954878       0.095484
  48.735   0.0839843750  0.84893     3738.50000 0.9095       0.905146       0.090513
  48.944   0.0839843750  0.84835     3739.00000 0.9141       0.859302       0.085930
  49.169   0.0839843750  0.84763     3739.50000 0.9182       0.817695       0.081770
  49.437   0.0839843750  0.84688     3740.00000 0.9219       0.780702       0.078070
  49.780   0.0839843750  0.84622     3740.50000 0.9251       0.748719       0.074870
  50.229   0.0839843750  0.84579     3741.00000 0.9278       0.722154       0.072212
  76.551   0.0839843750  0.86057     3760.50000 0.8984       1.016513       0.101643
  75.936   0.0839843750  0.86209     3761.00000 0.9058       0.942223       0.094219
  75.143   0.0839843750  0.86323     3761.50000 0.9129       0.870974       0.087097
  74.235   0.0839843750  0.86402     3762.00000 0.9196       0.803648       0.080365
  73.280   0.0839843750  0.86445     3762.50000 0.9259       0.741033       0.074102
  72.337   0.0839843750  0.86452     3763.00000 0.9316       0.683794       0.068375
  42.802   0.0839843750  0.85784     3776.00000 0.8730       1.269996       0.126986
  45.191   0.0839843750  0.85843     3776.50000 0.8708       1.291784       0.129176
  47.673   0.0839843750  0.85846     3777.00000 0.8697       1.302505       0.130250
  50.130   0.0839843750  0.85812     3777.50000 0.8697       1.302788       0.130273
  49.970   0.0839843750  0.88790     3788.00000 0.9108       0.892496       0.089247
  49.246   0.0839843750  0.88761     3788.50000 0.9090       0.910200       0.091019
  48.635   0.0839843750  0.88659     3789.00000 0.9070       0.929653       0.092965
  48.146   0.0839843750  0.88484     3789.50000 0.9050       0.950485       0.095048
  47.786   0.0839843750  0.88238     3790.00000 0.9028       0.972375       0.097237
  47.561   0.0839843750  0.87923     3790.50000 0.9005       0.995057       0.099505
  47.478   0.0839843750  0.87538     3791.00000 0.8982       1.018328       0.101831
  47.537   0.0839843750  0.87082     3791.50000 0.8958       1.042060       0.104203
  47.737   0.0839843750  0.86556     3792.00000 0.8934       1.066196       0.106616
  48.072   0.0839843750  0.85956     3792.50000 0.8909       1.090738       0.109069
  48.532   0.0839843750  0.85285     3793.00000 0.8884       1.115724       0.111567
  49.099   0.0839843750  0.84551     3793.50000 0.8859       1.141191       0.114114
  49.753   0.0839843750  0.83768     3794.00000 0.8833       1.167142       0.116710
  50.470   0.0839843750  0.82961     3794.50000 0.8807       1.193503       0.119347
  51.225   0.0839843750  0.82162     3795.00000 0.8780       1.220096       0.122007
  51.993   0.0839843750  0.81409     3795.50000 0.8753       1.246627       0.124661
  52.752   0.0839843750  0.80736     3796.00000 0.8727       1.272683       0.127268
  53.483   0.0839843750  0.80169     3796.50000 0.8702       1.297749       0.129775
  54.172   0.0839843750  0.79725     3797.00000 0.8679       1.321242       0.132124
  54.810   0.0839843750  0.79406     3797.50000 0.8657       1.342553       0.134254
  55.394   0.0839843750  0.79204     3798.00000 0.8639       1.361087       0.136105
  55.922   0.0839843750  0.79098     3798.50000 0.8624       1.376323       0.137625
  56.399   0.0839843750  0.79066     3799.00000 0.8612       1.387846       0.138773
  56.830   0.0839843750  0.79077     3799.50000 0.8605       1.395391       0.139520
  86.670   0.0839843750  0.87552     3823.50000 0.8666       1.334078       0.133392
  86.234   0.0839843750  0.87895     3824.00000 0.8653       1.346815       0.134670
  85.752   0.0839843750  0.88216     3824.50000 0.8642       1.358494       0.135841
  85.250   0.0839843750  0.88515     3825.00000 0.8631       1.369218       0.136916
  84.750   0.0839843750  0.88797     3825.50000 0.8621       1.379039       0.137900
  84.273   0.0839843750  0.89062     3826.00000 0.8612       1.387938       0.138791
  83.371   0.0839843750  0.91167     3833.00000 0.8709       1.290827       0.129078
  83.425   0.0839843750  0.91183     3833.50000 0.8746       1.253720       0.125368
  83.386   0.0839843750  0.91181     3834.00000 0.8788       1.211745       0.121171
  83.225   0.0839843750  0.91161     3834.50000 0.8834       1.165852       0.116582
  82.913   0.0839843750  0.91127     3835.00000 0.8883       1.117448       0.111743
  82.427   0.0839843750  0.91078     3835.50000 0.8932       1.068308       0.106829
  81.751   0.0839843750  0.91019     3836.00000 0.8980       1.020403       0.102039
  80.881   0.0839843750  0.90950     3836.50000 0.9024       0.975704       0.097569
  67.391   0.0839843750  0.90399     3843.50000 0.8994       1.006431       0.100643
  67.181   0.0839843750  0.90518     3844.00000 0.8965       1.034523       0.103452
  67.036   0.0839843750  0.90671     3844.50000 0.8939       1.061304       0.106130
  66.943   0.0839843750  0.90856     3845.00000 0.8914       1.085965       0.108596
  66.889   0.0839843750  0.91072     3845.50000 0.8892       1.107766       0.110777
  66.864   0.0839843750  0.91312     3846.00000 0.8874       1.126038       0.112604
  66.859   0.0839843750  0.91573     3846.50000 0.8860       1.140200       0.114020
  66.864   0.0839843750  0.91847     3847.00000 0.8850       1.149765       0.114976
  66.875   0.0839843750  0.92129     3847.50000 0.8846       1.154357       0.115436
  66.884   0.0839843750  0.92412     3848.00000 0.8846       1.153722       0.115372
  66.886   0.0839843750  0.92691     3848.50000 0.8852       1.147746       0.114775
  66.878   0.0839843750  0.92959     3849.00000 0.8864       1.136463       0.113646
  65.473   0.0839843750  0.95100     3856.00000 0.9254       0.746493       0.074649
  65.325   0.0839843750  0.95195     3856.50000 0.9266       0.734237       0.073424
  65.178   0.0839843750  0.95289     3857.00000 0.9272       0.727658       0.072766
  65.034   0.0839843750  0.95385     3857.50000 0.9273       0.727020       0.072702
  64.898   0.0839843750  0.95481     3858.00000 0.9268       0.732439       0.073244
  64.780   0.0839843750  0.95577     3858.50000 0.9256       0.743874       0.074387
  64.686   0.0839843750  0.95672     3859.00000 0.9239       0.761121       0.076112
  64.625   0.0839843750  0.95762     3859.50000 0.9216       0.783816       0.078382
  64.604   0.0839843750  0.95844     3860.00000 0.9189       0.811442       0.081144
  64.627   0.0839843750  0.95916     3860.50000 0.9157       0.843350       0.084335
  64.695   0.0839843750  0.95972     3861.00000 0.9121       0.878778       0.087877
  64.807   0.0839843750  0.96008     3861.50000 0.9083       0.916878       0.091687
  64.959   0.0839843750  0.96022     3862.00000 0.9043       0.956748       0.095673
  65.145   0.0839843750  0.96012     3862.50000 0.9003       0.997454       0.099743
  65.357   0.0839843750  0.95977     3863.00000 0.8962       1.038062       0.103802
  65.589   0.0839843750  0.95921     3863.50000 0.8922       1.077652       0.107760
  65.835   0.0839843750  0.95847     3864.00000 0.8885       1.115342       0.111527
  66.088   0.0839843750  0.95761     3864.50000 0.8850       1.150302       0.115020
  66.346   0.0839843750  0.95669     3865.00000 0.8818       1.181769       0.118164
  74.018   0.0839843750  0.94228     3874.50000 0.9111       0.889384       0.088928
  74.655   0.0839843750  0.94258     3875.00000 0.9142       0.857633       0.085755
  75.265   0.0839843750  0.94307     3875.50000 0.9170       0.829831       0.082977
  75.832   0.0839843750  0.94343     3876.00000 0.9193       0.806689       0.080664
  76.343   0.0839843750  0.94319     3876.50000 0.9211       0.788808       0.078877
  76.790   0.0839843750  0.94174     3877.00000 0.9223       0.776659       0.077663
  77.172   0.0839843750  0.93847     3877.50000 0.9229       0.770574       0.077055
  77.495   0.0839843750  0.93293     3878.00000 0.9229       0.770730       0.077071
  77.768   0.0839843750  0.92497     3878.50000 0.9223       0.777145       0.077713
  78.006   0.0839843750  0.91475     3879.00000 0.9210       0.789671       0.078965
  78.222   0.0839843750  0.90263     3879.50000 0.9192       0.807999       0.080798
  41.798   0.0886230469  0.78938     3709.00000 0.9103       0.897461       0.089735
  41.328   0.0886230469  0.79246     3709.50000 0.9136       0.864245       0.086415
  41.293   0.0886230469  0.79541     3710.00000 0.9167       0.833573       0.083349
  41.763   0.0886230469  0.79820     3710.50000 0.9193       0.806977       0.080690
  42.784   0.0886230469  0.80082     3711.00000 0.9214       0.785802       0.078573
  44.372   0.0886230469  0.80324     3711.50000 0.9229       0.771258       0.077119
  46.499   0.0886230469  0.80544     3712.00000 0.9236       0.764443       0.076437
  49.089   0.0886230469  0.80739     3712.50000 0.9234       0.766344       0.076628
  52.027   0.0886230469  0.80906     3713.00000 0.9222       0.777772       0.077771
  55.171   0.0886230469  0.81041     3713.50000 0.9201       0.799276       0.079921
  58.370   0.0886230469  0.81142     3714.00000 0.9169       0.831052       0.083099
  61.487   0.0886230469  0.81205     3714.50000 0.9127       0.872848       0.087279
  64.413   0.0886230469  0.81229     3715.00000 0.9076       0.923903       0.092385
  67.079   0.0886230469  0.81216     3715.50000 0.9017       0.982867       0.098282
  69.447   0.0886230469  0.81167     3716.00000 0.8952       1.047724       0.104768
  71.508   0.0886230469  0.81090     3716.50000 0.8884       1.115706       0.111566
  73.275   0.0886230469  0.80991     3717.00000 0.8817       1.183264       0.118323
  74.769   0.0886230469  0.80883     3717.50000 0.8754       1.246187       0.124615
  49.304   0.0886230469  0.82305     3737.50000 0.9005       0.995217       0.099511
  49.485   0.0886230469  0.82145     3738.00000 0.9061       0.939053       0.093900
  49.570   0.0886230469  0.82016     3738.50000 0.9114       0.886493       0.088647
  49.580   0.0886230469  0.81926     3739.00000 0.9162       0.837649       0.083764
  49.547   0.0886230469  0.81879     3739.50000 0.9207       0.792742       0.079274
  49.521   0.0886230469  0.81876     3740.00000 0.9248       0.752107       0.075210
  49.567   0.0886230469  0.81915     3740.50000 0.9284       0.716183       0.071616
  77.518   0.0886230469  0.82631     3760.50000 0.8983       1.017013       0.101696
  76.058   0.0886230469  0.82771     3761.00000 0.9065       0.934870       0.093486
  74.444   0.0886230469  0.82885     3761.50000 0.9144       0.855960       0.085596
  72.810   0.0886230469  0.82976     3762.00000 0.9219       0.781455       0.078145
  71.303   0.0886230469  0.83044     3762.50000 0.9288       0.712380       0.071237
  70.069   0.0886230469  0.83088     3763.00000 0.9350       0.649591       0.064956
  39.071   0.0886230469  0.81493     3775.50000 0.8659       1.341519       0.134132
  42.421   0.0886230469  0.81609     3776.00000 0.8626       1.373838       0.137382
  45.957   0.0886230469  0.81644     3776.50000 0.8608       1.392261       0.139225
  49.451   0.0886230469  0.81626     3777.00000 0.8602       1.398465       0.139835
  49.376   0.0886230469  0.87251     3788.50000 0.9102       0.898448       0.089844
  48.598   0.0886230469  0.87196     3789.00000 0.9078       0.921532       0.092153
  47.909   0.0886230469  0.87136     3789.50000 0.9054       0.945520       0.094552
  47.330   0.0886230469  0.87069     3790.00000 0.9030       0.969885       0.096988
  46.881   0.0886230469  0.86984     3790.50000 0.9006       0.994165       0.099414
  46.585   0.0886230469  0.86858     3791.00000 0.8982       1.018023       0.101798
  46.463   0.0886230469  0.86660     3791.50000 0.8959       1.041314       0.104125
  46.529   0.0886230469  0.86359     3792.00000 0.8936       1.064107       0.106403
  46.791   0.0886230469  0.85933     3792.50000 0.8913       1.086685       0.108660
  47.247   0.0886230469  0.85380     3793.00000 0.8891       1.109493       0.110941
  47.878   0.0886230469  0.84722     3793.50000 0.8867       1.133051       0.113297
  48.656   0.0886230469  0.84011     3794.00000 0.8842       1.157837       0.115777
  49.541   0.0886230469  0.83312     3794.50000 0.8816       1.184184       0.118413
  50.488   0.0886230469  0.82690     3795.00000 0.8788       1.212181       0.121214
  51.452   0.0886230469  0.82190     3795.50000 0.8758       1.241625       0.124160
  52.392   0.0886230469  0.81827     3796.00000 0.8728       1.272010       0.127200
  53.273   0.0886230469  0.81592     3796.50000 0.8697       1.302548       0.130255
  54.071   0.0886230469  0.81453     3797.00000 0.8668       1.332235       0.133224
  54.773   0.0886230469  0.81372     3797.50000 0.8640       1.359932       0.135993
  55.375   0.0886230469  0.81305     3798.00000 0.8616       1.384468       0.138445
  55.880   0.0886230469  0.81213     3798.50000 0.8595       1.404751       0.140470
  56.299   0.0886230469  0.81063     3799.00000 0.8580       1.419877       0.141978
  56.646   0.0886230469  0.80834     3799.50000 0.8571       1.429229       0.142907
  88.413   0.0886230469  0.86713     3823.00000 0.8674       1.326119       0.132595
  87.818   0.0886230469  0.87070     3823.50000 0.8664       1.336158       0.133605
  87.122   0.0886230469  0.87407     3824.00000 0.8655       1.345193       0.134513
  86.365   0.0886230469  0.87729     3824.50000 0.8646       1.353730       0.135369
  85.587   0.0886230469  0.88039     3825.00000 0.8638       1.362143       0.136212
  84.825   0.0886230469  0.88338     3825.50000 0.8629       1.370643       0.137063
  84.110   0.0886230469  0.88627     3826.00000 0.8621       1.379289       0.137928
  84.237   0.0886230469  0.90662     3833.50000 0.8692       1.308211       0.130816
  84.423   0.0886230469  0.90614     3834.00000 0.8739       1.261150       0.126111
  84.452   0.0886230469  0.90547     3834.50000 0.8794       1.206368       0.120633
  84.278   0.0886230469  0.90461     3835.00000 0.8854       1.145754       0.114573
  83.860   0.0886230469  0.90356     3835.50000 0.8918       1.082088       0.108207
  83.165   0.0886230469  0.90235     3836.00000 0.8981       1.018703       0.101869
  66.797   0.0886230469  0.89530     3843.50000 0.9007       0.993067       0.099307
  66.679   0.0886230469  0.89772     3844.00000 0.8972       1.027505       0.102750
  66.626   0.0886230469  0.90053     3844.50000 0.8940       1.060465       0.106046
  66.622   0.0886230469  0.90363     3845.00000 0.8909       1.091052       0.109105
  66.654   0.0886230469  0.90694     3845.50000 0.8882       1.118433       0.111843
  66.711   0.0886230469  0.91037     3846.00000 0.8858       1.141836       0.114184
  66.782   0.0886230469  0.91383     3846.50000 0.8839       1.160566       0.116057
  66.857   0.0886230469  0.91725     3847.00000 0.8826       1.174002       0.117400
  66.929   0.0886230469  0.92054     3847.50000 0.8818       1.181626       0.118163
  66.988   0.0886230469  0.92367     3848.00000 0.8817       1.183043       0.118304
  67.028   0.0886230469  0.92658     3848.50000 0.8822       1.178010       0.117801
  67.043   0.0886230469  0.92927     3849.00000 0.8834       1.166478       0.116648
  65.499   0.0886230469  0.94924     3856.00000 0.9285       0.715013       0.071501
  65.375   0.0886230469  0.95081     3856.50000 0.9300       0.700255       0.070025
  65.227   0.0886230469  0.95250     3857.00000 0.9308       0.691955       0.069195
  65.052   0.0886230469  0.95428     3857.50000 0.9310       0.690456       0.069046
  64.848   0.0886230469  0.95609     3858.00000 0.9304       0.695940       0.069594
  64.627   0.0886230469  0.95785     3858.50000 0.9292       0.708408       0.070841
  64.405   0.0886230469  0.95948     3859.00000 0.9272       0.727662       0.072766
  64.204   0.0886230469  0.96088     3859.50000 0.9247       0.753294       0.075329
  64.047   0.0886230469  0.96194     3860.00000 0.9215       0.784697       0.078470
  63.953   0.0886230469  0.96258     3860.50000 0.9179       0.821082       0.082108
  63.934   0.0886230469  0.96272     3861.00000 0.9138       0.861523       0.086152
  63.993   0.0886230469  0.96236     3861.50000 0.9095       0.904998       0.090499
  64.126   0.0886230469  0.96154     3862.00000 0.9050       0.950443       0.095043
  64.324   0.0886230469  0.96032     3862.50000 0.9003       0.996782       0.099676
  64.572   0.0886230469  0.95883     3863.00000 0.8957       1.042962       0.104293
  64.857   0.0886230469  0.95718     3863.50000 0.8912       1.087964       0.108791
  65.164   0.0886230469  0.95550     3864.00000 0.8869       1.130817       0.113074
  65.483   0.0886230469  0.95387     3864.50000 0.8829       1.170608       0.117050
  65.805   0.0886230469  0.95236     3865.00000 0.8794       1.206484       0.120635
  75.237   0.0886230469  0.93175     3874.50000 0.9132       0.867698       0.086759
  76.024   0.0886230469  0.93004     3875.00000 0.9168       0.831589       0.083151
  76.725   0.0886230469  0.92875     3875.50000 0.9200       0.799993       0.079993
  77.302   0.0886230469  0.92806     3876.00000 0.9226       0.773688       0.077365
  77.732   0.0886230469  0.92803     3876.50000 0.9247       0.753354       0.075332
  78.006   0.0886230469  0.92857     3877.00000 0.9260       0.739563       0.073954
  78.136   0.0886230469  0.92923     3877.50000 0.9267       0.732758       0.073274
  78.151   0.0886230469  0.92913     3878.00000 0.9267       0.733227       0.073322
  78.097   0.0886230469  0.92707     3878.50000 0.9259       0.741074       0.074106
  78.020   0.0886230469  0.92187     3879.00000 0.9244       0.756205       0.075620
  77.965   0.0886230469  0.91293     3879.50000 0.9222       0.778320       0.077831
  77.963   0.0886230469  0.90043     3880.00000 0.9193       0.806914       0.080690
  40.542   0.0932617188  0.75306     3708.50000 0.9053       0.947222       0.094712
  39.218   0.0932617188  0.75604     3709.00000 0.9101       0.899487       0.089940
  38.259   0.0932617188  0.75848     3709.50000 0.9147       0.853170       0.085310
  37.806   0.0932617188  0.76059     3710.00000 0.9189       0.810729       0.081066
  37.988   0.0932617188  0.76251     3710.50000 0.9226       0.774026       0.077396
  38.905   0.0932617188  0.76431     3711.00000 0.9256       0.744511       0.074445
  40.608   0.0932617188  0.76602     3711.50000 0.9277       0.723445       0.072338
  43.076   0.0932617188  0.76762     3712.00000 0.9288       0.712056       0.071198
  46.211   0.0932617188  0.76906     3712.50000 0.9289       0.711569       0.071149
  49.839   0.0932617188  0.77029     3713.00000 0.9277       0.723119       0.072304
  53.735   0.0932617188  0.77126     3713.50000 0.9252       0.747599       0.074752
  57.664   0.0932617188  0.77193     3714.00000 0.9215       0.785486       0.078541
  61.419   0.0932617188  0.77226     3714.50000 0.9163       0.836732       0.083666
  64.853   0.0932617188  0.77222     3715.00000 0.9099       0.900685       0.090062
  67.881   0.0932617188  0.77182     3715.50000 0.9024       0.976002       0.097594
  70.476   0.0932617188  0.77106     3716.00000 0.8940       1.060474       0.106042
  72.650   0.0932617188  0.77001     3716.50000 0.8849       1.150729       0.115068
  74.441   0.0932617188  0.76872     3717.00000 0.8758       1.241885       0.124184
  75.896   0.0932617188  0.76731     3717.50000 0.8673       1.327340       0.132730
  50.649   0.0932617188  0.79005     3737.50000 0.9021       0.979584       0.097945
  50.698   0.0932617188  0.78760     3738.00000 0.9077       0.922667       0.092260
  50.538   0.0932617188  0.78632     3738.50000 0.9131       0.869118       0.086910
  50.183   0.0932617188  0.78617     3739.00000 0.9181       0.818815       0.081881
  49.679   0.0932617188  0.78699     3739.50000 0.9228       0.771846       0.077184
  49.106   0.0932617188  0.78858     3740.00000 0.9272       0.728505       0.072849
  79.788   0.0932617188  0.77402     3760.00000 0.8885       1.114709       0.111466
  77.415   0.0932617188  0.77529     3760.50000 0.8978       1.021816       0.102180
  74.679   0.0932617188  0.77642     3761.00000 0.9070       0.930223       0.093022
  71.763   0.0932617188  0.77748     3761.50000 0.9158       0.841819       0.084182
  68.905   0.0932617188  0.77853     3762.00000 0.9242       0.758292       0.075828
  66.396   0.0932617188  0.77962     3762.50000 0.9319       0.680989       0.068097
  64.558   0.0932617188  0.78076     3763.00000 0.9389       0.610952       0.061092
  37.979   0.0932617188  0.76155     3775.50000 0.8541       1.459520       0.145949
  42.914   0.0932617188  0.76236     3776.00000 0.8516       1.484079       0.148404
  48.906   0.0932617188  0.83412     3789.00000 0.9083       0.917233       0.091723
  47.942   0.0932617188  0.83740     3789.50000 0.9054       0.945984       0.094598
  47.048   0.0932617188  0.84133     3790.00000 0.9026       0.974386       0.097436
  46.261   0.0932617188  0.84525     3790.50000 0.8999       1.001375       0.100132
  45.629   0.0932617188  0.84842     3791.00000 0.8974       1.026083       0.102600
  45.201   0.0932617188  0.85012     3791.50000 0.8952       1.048061       0.104795
  45.027   0.0932617188  0.84981     3792.00000 0.8933       1.067428       0.106730
  45.144   0.0932617188  0.84734     3792.50000 0.8915       1.084925       0.108479
  46.291   0.0932617188  0.83806     3793.50000 0.8881       1.119584       0.111947
  47.268   0.0932617188  0.83357     3794.00000 0.8860       1.139766       0.113967
  48.432   0.0932617188  0.83068     3794.50000 0.8837       1.163534       0.116346
  49.704   0.0932617188  0.82979     3795.00000 0.8808       1.191555       0.119151
  50.998   0.0932617188  0.83064     3795.50000 0.8776       1.223876       0.122385
  52.239   0.0932617188  0.83256     3796.00000 0.8740       1.259904       0.125989
  53.368   0.0932617188  0.83468     3796.50000 0.8702       1.298464       0.129846
  54.346   0.0932617188  0.83618     3797.00000 0.8662       1.337896       0.133790
  55.152   0.0932617188  0.83629     3797.50000 0.8624       1.376183       0.137618
  55.784   0.0932617188  0.83450     3798.00000 0.8589       1.411120       0.141111
  56.252   0.0932617188  0.83057     3798.50000 0.8560       1.440524       0.144049
  56.579   0.0932617188  0.82469     3799.00000 0.8538       1.462474       0.146241
  56.792   0.0932617188  0.81732     3799.50000 0.8525       1.475570       0.147545
  56.924   0.0932617188  0.80912     3800.00000 0.8521       1.479127       0.147893
  89.821   0.0932617188  0.86008     3823.00000 0.8665       1.334857       0.133473
  88.970   0.0932617188  0.86366     3823.50000 0.8662       1.338526       0.133846
  87.977   0.0932617188  0.86714     3824.00000 0.8658       1.341707       0.134168
  86.901   0.0932617188  0.87056     3824.50000 0.8655       1.345389       0.134538
  85.803   0.0932617188  0.87393     3825.00000 0.8650       1.350231       0.135023
  84.735   0.0932617188  0.87727     3825.50000 0.8643       1.356566       0.135657
  83.745   0.0932617188  0.88054     3826.00000 0.8636       1.364441       0.136444
  85.121   0.0932617188  0.89872     3833.50000 0.8630       1.370368       0.137029
  85.583   0.0932617188  0.89802     3834.00000 0.8680       1.319661       0.131960
  85.855   0.0932617188  0.89722     3834.50000 0.8744       1.255578       0.125553
  85.864   0.0932617188  0.89628     3835.00000 0.8820       1.180361       0.118033
  85.540   0.0932617188  0.89520     3835.50000 0.8902       1.098267       0.109825
  66.214   0.0932617188  0.88920     3843.50000 0.9018       0.982283       0.098228
  66.196   0.0932617188  0.89282     3844.00000 0.8977       1.023440       0.102344
  66.240   0.0932617188  0.89674     3844.50000 0.8937       1.062950       0.106295
  66.328   0.0932617188  0.90080     3845.00000 0.8900       1.099870       0.109987
  66.450   0.0932617188  0.90488     3845.50000 0.8867       1.133302       0.113330
  66.594   0.0932617188  0.90884     3846.00000 0.8838       1.162395       0.116239
  66.751   0.0932617188  0.91260     3846.50000 0.8814       1.186332       0.118633
  66.910   0.0932617188  0.91609     3847.00000 0.8796       1.204334       0.120433
  67.059   0.0932617188  0.91928     3847.50000 0.8784       1.215676       0.121568
  67.186   0.0932617188  0.92215     3848.00000 0.8780       1.219719       0.121972
  67.277   0.0932617188  0.92473     3848.50000 0.8784       1.215982       0.121598
  65.617   0.0932617188  0.94445     3856.00000 0.9318       0.682437       0.068244
  65.627   0.0932617188  0.94680     3856.50000 0.9335       0.664708       0.066471
  65.587   0.0932617188  0.94946     3857.00000 0.9346       0.654164       0.065416
  65.461   0.0932617188  0.95231     3857.50000 0.9349       0.651255       0.065125
  65.227   0.0932617188  0.95522     3858.00000 0.9344       0.656278       0.065628
  64.888   0.0932617188  0.95799     3858.50000 0.9331       0.669340       0.066934
  64.471   0.0932617188  0.96043     3859.00000 0.9310       0.690305       0.069030
  64.028   0.0932617188  0.96234     3859.50000 0.9281       0.718758       0.071876
  63.620   0.0932617188  0.96356     3860.00000 0.9246       0.753984       0.075398
  63.304   0.0932617188  0.96401     3860.50000 0.9205       0.795006       0.079501
  63.119   0.0932617188  0.96369     3861.00000 0.9159       0.840654       0.084065
  63.080   0.0932617188  0.96270     3861.50000 0.9110       0.889669       0.088967
  63.183   0.0932617188  0.96119     3862.00000 0.9059       0.940795       0.094079
  63.407   0.0932617188  0.95931     3862.50000 0.9007       0.992827       0.099281
  63.723   0.0932617188  0.95720     3863.00000 0.8955       1.044642       0.104461
  64.101   0.0932617188  0.95500     3863.50000 0.8905       1.095184       0.109513
  64.513   0.0932617188  0.95279     3864.00000 0.8857       1.143453       0.114337
  64.936   0.0932617188  0.95066     3864.50000 0.8812       1.188488       0.118837
  77.805   0.0932617188  0.92280     3875.00000 0.9196       0.803985       0.080390
  78.690   0.0932617188  0.91919     3875.50000 0.9231       0.768951       0.076890
  79.323   0.0932617188  0.91577     3876.00000 0.9261       0.739488       0.073946
  79.650   0.0932617188  0.91287     3876.50000 0.9284       0.716276       0.071626
  79.655   0.0932617188  0.91083     3877.00000 0.9300       0.700007       0.070000
  79.370   0.0932617188  0.90993     3877.50000 0.9309       0.691356       0.069135
  78.875   0.0932617188  0.91020     3878.00000 0.9309       0.690892       0.069089
  78.278   0.0932617188  0.91111     3878.50000 0.9301       0.698989       0.069899
  77.695   0.0932617188  0.91116     3879.00000 0.9284       0.715746       0.071574
  77.222   0.0932617188  0.90796     3879.50000 0.9259       0.740962       0.074096
  76.923   0.0932617188  0.89937     3880.00000 0.9226       0.774164       0.077416
  76.824   0.0932617188  0.88501     3880.50000 0.9185       0.814634       0.081463
  52.308   0.0979003906  0.75051     3737.50000 0.9038       0.961772       0.096163
  48.256   0.0979003906  0.80075     3789.50000 0.9050       0.950190       0.095017
  46.970   0.0979003906  0.81094     3790.00000 0.9014       0.986117       0.098606
  45.740   0.0979003906  0.81963     3790.50000 0.8981       1.019009       0.101890
  44.634   0.0979003906  0.82590     3791.00000 0.8954       1.046560       0.104640
  48.777   0.0979003906  0.84161     3795.00000 0.8845       1.154616       0.115456
  50.568   0.0979003906  0.85037     3795.50000 0.8811       1.189396       0.118937
  52.258   0.0979003906  0.85791     3796.00000 0.8768       1.232349       0.123233
  53.753   0.0979003906  0.86277     3796.50000 0.8718       1.281828       0.128182
  54.992   0.0979003906  0.86385     3797.00000 0.8665       1.335368       0.133537
  55.950   0.0979003906  0.86070     3797.50000 0.8610       1.389796       0.138980
  56.628   0.0979003906  0.85381     3798.00000 0.8559       1.441367       0.144136
  57.049   0.0979003906  0.84429     3798.50000 0.8514       1.486039       0.148602
  57.250   0.0979003906  0.83337     3799.00000 0.8480       1.519926       0.151989
  57.278   0.0979003906  0.82200     3799.50000 0.8460       1.539924       0.153984
  57.186   0.0979003906  0.81075     3800.00000 0.8456       1.544348       0.154420
  91.239   0.0979003906  0.85274     3823.00000 0.8655       1.344700       0.134461
  90.125   0.0979003906  0.85655     3823.50000 0.8660       1.339790       0.133976
  88.816   0.0979003906  0.86031     3824.00000 0.8664       1.335544       0.133554
  87.392   0.0979003906  0.86406     3824.50000 0.8667       1.333416       0.133342
  85.934   0.0979003906  0.86779     3825.00000 0.8666       1.334250       0.133425
  84.520   0.0979003906  0.87151     3825.50000 0.8662       1.338351       0.133834
  83.218   0.0979003906  0.87516     3826.00000 0.8654       1.345589       0.134558
  86.823   0.0979003906  0.88719     3834.00000 0.8613       1.386653       0.138656
  87.387   0.0979003906  0.88624     3834.50000 0.8686       1.313762       0.131370
  87.629   0.0979003906  0.88533     3835.00000 0.8778       1.221647       0.122161
  65.677   0.0979003906  0.88170     3843.00000 0.9075       0.925287       0.092528
  65.684   0.0979003906  0.88610     3843.50000 0.9026       0.973997       0.097400
  65.758   0.0979003906  0.89075     3844.00000 0.8978       1.021941       0.102194
  65.883   0.0979003906  0.89544     3844.50000 0.8932       1.068113       0.106811
  66.049   0.0979003906  0.89999     3845.00000 0.8888       1.111559       0.111156
  66.248   0.0979003906  0.90423     3845.50000 0.8849       1.151366       0.115137
  66.474   0.0979003906  0.90807     3846.00000 0.8813       1.186634       0.118663
  66.721   0.0979003906  0.91145     3846.50000 0.8784       1.216455       0.121645
  66.978   0.0979003906  0.91437     3847.00000 0.8760       1.239878       0.123988
  67.230   0.0979003906  0.91687     3847.50000 0.8744       1.255901       0.125590
  67.457   0.0979003906  0.91901     3848.00000 0.8736       1.263503       0.126350
  66.080   0.0979003906  0.94257     3856.50000 0.9371       0.628730       0.062873
  66.340   0.0979003906  0.94613     3857.00000 0.9385       0.615343       0.061534
  66.433   0.0979003906  0.94996     3857.50000 0.9390       0.610342       0.061034
  66.274   0.0979003906  0.95370     3858.00000 0.9386       0.614184       0.061418
  65.822   0.0979003906  0.95698     3858.50000 0.9373       0.627163       0.062716
  65.109   0.0979003906  0.95952     3859.00000 0.9351       0.649325       0.064932
  64.240   0.0979003906  0.96115     3859.50000 0.9320       0.680351       0.068034
  63.364   0.0979003906  0.96186     3860.00000 0.9281       0.719438       0.071943
  62.628   0.0979003906  0.96179     3860.50000 0.9235       0.765313       0.076531
  62.136   0.0979003906  0.96112     3861.00000 0.9184       0.816394       0.081639
  61.928   0.0979003906  0.96003     3861.50000 0.9129       0.871028       0.087103
  61.992   0.0979003906  0.95860     3862.00000 0.9072       0.927711       0.092771
  62.280   0.0979003906  0.95690     3862.50000 0.9015       0.985166       0.098516
  62.727   0.0979003906  0.95494     3863.00000 0.8958       1.042313       0.104229
  63.272   0.0979003906  0.95276     3863.50000 0.8902       1.098195       0.109814
  63.860   0.0979003906  0.95039     3864.00000 0.8848       1.151896       0.115181
  80.060   0.0979003906  0.92130     3875.00000 0.9223       0.776750       0.077667
  81.291   0.0979003906  0.91672     3875.50000 0.9260       0.739829       0.073978
  82.082   0.0979003906  0.91146     3876.00000 0.9292       0.708071       0.070805
  82.313   0.0979003906  0.90578     3876.50000 0.9318       0.681888       0.068188
  81.940   0.0979003906  0.90005     3877.00000 0.9338       0.662083       0.066208
  81.025   0.0979003906  0.89473     3877.50000 0.9350       0.649812       0.064981
  79.731   0.0979003906  0.89032     3878.00000 0.9354       0.646337       0.064634
  78.289   0.0979003906  0.88740     3878.50000 0.9347       0.652672       0.065267
  76.938   0.0979003906  0.88637     3879.00000 0.9331       0.669336       0.066934
  75.867   0.0979003906  0.88695     3879.50000 0.9304       0.696305       0.069631
  75.179   0.0979003906  0.88702     3880.00000 0.9267       0.733131       0.073313
  74.897   0.0979003906  0.88205     3880.50000 0.9221       0.779091       0.077909
  74.987   0.0979003906  0.86846     3881.00000 0.9167       0.833284       0.083327
  47.615   0.1025390625  0.86005     3795.00000 0.8901       1.098981       0.109893
  50.092   0.1025390625  0.87176     3795.50000 0.8864       1.135587       0.113556
  52.393   0.1025390625  0.87818     3796.00000 0.8814       1.186426       0.118642
  54.376   0.1025390625  0.87858     3796.50000 0.8751       1.249397       0.124939
  55.963   0.1025390625  0.87407     3797.00000 0.8679       1.321399       0.132140
  57.126   0.1025390625  0.86664     3797.50000 0.8602       1.398229       0.139823
  57.877   0.1025390625  0.85783     3798.00000 0.8526       1.474382       0.147438
  58.250   0.1025390625  0.84840     3798.50000 0.8457       1.543077       0.154307
  58.300   0.1025390625  0.83856     3799.00000 0.8403       1.596850       0.159683
  58.098   0.1025390625  0.82832     3799.50000 0.8371       1.628951       0.162891
  57.720   0.1025390625  0.81760     3800.00000 0.8365       1.635219       0.163513
  91.290   0.1025390625  0.84978     3823.50000 0.8662       1.337676       0.133766
  89.667   0.1025390625  0.85398     3824.00000 0.8674       1.325741       0.132574
  87.880   0.1025390625  0.85809     3824.50000 0.8682       1.318193       0.131818
  86.033   0.1025390625  0.86210     3825.00000 0.8684       1.315775       0.131575
  84.234   0.1025390625  0.86598     3825.50000 0.8682       1.318519       0.131849
  82.576   0.1025390625  0.86969     3826.00000 0.8674       1.325924       0.132589
  88.085   0.1025390625  0.87404     3834.00000 0.8539       1.460820       0.146069
  88.986   0.1025390625  0.87265     3834.50000 0.8619       1.380603       0.138052
  65.158   0.1025390625  0.88020     3843.00000 0.9088       0.912269       0.091227
  65.251   0.1025390625  0.88508     3843.50000 0.9032       0.967702       0.096770
  65.387   0.1025390625  0.88991     3844.00000 0.8978       1.022300       0.102230
  65.561   0.1025390625  0.89447     3844.50000 0.8925       1.075080       0.107508
  65.769   0.1025390625  0.89857     3845.00000 0.8875       1.125109       0.112511
  66.015   0.1025390625  0.90210     3845.50000 0.8829       1.171497       0.117150
  66.301   0.1025390625  0.90505     3846.00000 0.8787       1.213354       0.121335
  66.629   0.1025390625  0.90743     3846.50000 0.8750       1.249740       0.124974
  66.993   0.1025390625  0.90934     3847.00000 0.8720       1.279572       0.127957
  67.380   0.1025390625  0.91088     3847.50000 0.8698       1.301543       0.130154
  66.672   0.1025390625  0.94061     3856.50000 0.9407       0.593250       0.059325
  67.541   0.1025390625  0.94333     3857.00000 0.9424       0.576386       0.057639
  68.171   0.1025390625  0.94619     3857.50000 0.9431       0.568571       0.056857
  68.329   0.1025390625  0.94873     3858.00000 0.9430       0.570375       0.057037
  67.844   0.1025390625  0.95054     3858.50000 0.9418       0.582301       0.058229
  66.701   0.1025390625  0.95149     3859.00000 0.9395       0.604764       0.060475
  65.087   0.1025390625  0.95179     3859.50000 0.9362       0.637845       0.063783
  63.344   0.1025390625  0.95173     3860.00000 0.9319       0.680853       0.068083
  61.834   0.1025390625  0.95157     3860.50000 0.9268       0.732082       0.073207
  60.803   0.1025390625  0.95136     3861.00000 0.9211       0.789118       0.078911
  60.335   0.1025390625  0.95108     3861.50000 0.9150       0.849545       0.084954
  60.377   0.1025390625  0.95063     3862.00000 0.9089       0.911494       0.091149
  60.810   0.1025390625  0.94989     3862.50000 0.9026       0.973740       0.097373
  61.498   0.1025390625  0.94878     3863.00000 0.8965       1.035493       0.103547
  62.321   0.1025390625  0.94726     3863.50000 0.8904       1.096125       0.109607
  82.798   0.1025390625  0.91918     3875.00000 0.9249       0.751154       0.075106
  84.604   0.1025390625  0.91605     3875.50000 0.9284       0.715552       0.071551
  85.720   0.1025390625  0.91127     3876.00000 0.9316       0.683720       0.068370
  85.909   0.1025390625  0.90490     3876.50000 0.9345       0.655080       0.065508
  85.055   0.1025390625  0.89718     3877.00000 0.9370       0.630357       0.063036
  83.235   0.1025390625  0.88847     3877.50000 0.9388       0.611703       0.061170
  80.745   0.1025390625  0.87929     3878.00000 0.9398       0.601994       0.060199
  78.036   0.1025390625  0.87027     3878.50000 0.9396       0.603694       0.060368
  75.577   0.1025390625  0.86217     3879.00000 0.9382       0.618061       0.061805
  73.708   0.1025390625  0.85593     3879.50000 0.9355       0.645145       0.064514
  72.569   0.1025390625  0.85259     3880.00000 0.9316       0.684285       0.068428
  72.141   0.1025390625  0.85272     3880.50000 0.9265       0.734615       0.073462
  72.309   0.1025390625  0.85410     3881.00000 0.9205       0.795304       0.079530
  72.935   0.1025390625  0.84849     3881.50000 0.9134       0.865547       0.086552
  73.889   0.1025390625  0.83024     3882.00000 0.9056       0.944418       0.094436
  65.374   0.1025390625  0.88187     4011.00000 0.8864       1.135852       0.113571
  66.553   0.1025390625  0.87671     4011.50000 0.8895       1.105100       0.110499
  49.495   0.1071777344  0.86472     3795.50000 0.8938       1.062332       0.106232
  52.569   0.1071777344  0.86276     3796.00000 0.8879       1.121389       0.112139
  55.157   0.1071777344  0.85956     3796.50000 0.8801       1.199174       0.119917
  57.173   0.1071777344  0.85663     3797.00000 0.8707       1.292629       0.129263
  58.598   0.1071777344  0.85403     3797.50000 0.8603       1.397465       0.139747
  59.456   0.1071777344  0.85125     3798.00000 0.8493       1.507110       0.150711
  59.797   0.1071777344  0.84765     3798.50000 0.8388       1.611612       0.161161
  59.692   0.1071777344  0.84263     3799.00000 0.8302       1.697606       0.169760
  59.229   0.1071777344  0.83572     3799.50000 0.8249       1.750712       0.175070
  58.513   0.1071777344  0.82656     3800.00000 0.8239       1.760627       0.176059
  90.577   0.1071777344  0.84842     3824.00000 0.8688       1.311715       0.131171
  88.431   0.1071777344  0.85274     3824.50000 0.8699       1.300937       0.130090
  86.174   0.1071777344  0.85667     3825.00000 0.8703       1.297423       0.129735
  83.943   0.1071777344  0.86020     3825.50000 0.8699       1.300650       0.130057
  81.874   0.1071777344  0.86327     3826.00000 0.8691       1.309571       0.130949
  90.586   0.1071777344  0.85785     3834.50000 0.8545       1.455064       0.145495
  64.803   0.1071777344  0.87953     3843.00000 0.9099       0.900774       0.090077
  64.949   0.1071777344  0.88320     3843.50000 0.9037       0.962627       0.096263
  65.109   0.1071777344  0.88664     3844.00000 0.8976       1.023676       0.102368
  65.285   0.1071777344  0.88966     3844.50000 0.8917       1.082959       0.108296
  65.488   0.1071777344  0.89217     3845.00000 0.8860       1.139577       0.113958
  65.732   0.1071777344  0.89416     3845.50000 0.8807       1.192685       0.119268
  66.035   0.1071777344  0.89567     3846.00000 0.8759       1.241463       0.124146
  66.414   0.1071777344  0.89680     3846.50000 0.8715       1.285030       0.128503
  66.879   0.1071777344  0.89767     3847.00000 0.8678       1.322287       0.132228
  67.262   0.1071777344  0.94534     3856.50000 0.9441       0.559048       0.055905
  69.170   0.1071777344  0.94280     3857.00000 0.9462       0.538159       0.053816
  70.862   0.1071777344  0.93907     3857.50000 0.9473       0.527046       0.052705
  71.830   0.1071777344  0.93538     3858.00000 0.9474       0.526159       0.052616
  71.583   0.1071777344  0.93270     3858.50000 0.9464       0.535874       0.053586
  69.887   0.1071777344  0.93127     3859.00000 0.9443       0.557003       0.055698
  66.998   0.1071777344  0.93072     3859.50000 0.9409       0.590791       0.059076
  63.664   0.1071777344  0.93066     3860.00000 0.9362       0.637595       0.063755
  60.760   0.1071777344  0.93089     3860.50000 0.9305       0.695261       0.069521
  58.846   0.1071777344  0.93131     3861.00000 0.9241       0.759531       0.075950
  58.032   0.1071777344  0.93178     3861.50000 0.9174       0.826275       0.082626
  58.133   0.1071777344  0.93216     3862.00000 0.9107       0.893055       0.089305
  58.864   0.1071777344  0.93234     3862.50000 0.9041       0.959050       0.095905
  88.599   0.1071777344  0.90406     3875.50000 0.9302       0.698090       0.069804
  90.264   0.1071777344  0.90198     3876.00000 0.9330       0.670461       0.067045
  90.525   0.1071777344  0.89729     3876.50000 0.9359       0.641056       0.064106
  89.116   0.1071777344  0.89001     3877.00000 0.9390       0.609656       0.060965
  86.073   0.1071777344  0.88050     3877.50000 0.9420       0.580262       0.058024
  70.450   0.1071777344  0.83264     3879.50000 0.9411       0.588764       0.058874
  68.888   0.1071777344  0.82254     3880.00000 0.9371       0.629123       0.062911
  68.448   0.1071777344  0.81519     3880.50000 0.9317       0.682518       0.068252
  68.854   0.1071777344  0.81147     3881.00000 0.9252       0.748198       0.074820
  69.846   0.1071777344  0.81227     3881.50000 0.9174       0.825865       0.082585
  71.222   0.1071777344  0.81609     3882.00000 0.9085       0.915396       0.091533
  63.371   0.1071777344  0.84978     4010.50000 0.8829       1.170770       0.117065
  64.510   0.1071777344  0.84623     4011.00000 0.8858       1.141840       0.114177
  66.049   0.1071777344  0.84203     4011.50000 0.8894       1.105975       0.110593
  48.699   0.1118164062  0.81416     3795.50000 0.9028       0.972488       0.097248
  52.704   0.1118164062  0.81599     3796.00000 0.8961       1.039242       0.103924
  56.001   0.1118164062  0.81930     3796.50000 0.8869       1.131134       0.113113
  58.515   0.1118164062  0.82336     3797.00000 0.8754       1.246211       0.124621
  61.363   0.1118164062  0.83067     3799.00000 0.8175       1.825184       0.182518
  60.629   0.1118164062  0.82603     3799.50000 0.8085       1.915098       0.191510
