-104.203   0.1303710938  0.77187      239.00000 0.9089       0.911221       0.091120
-105.493   0.1303710938  0.75511      239.50000 0.9202       0.797612       0.079760
 -98.327   0.1350097656  0.80948      235.00000 0.8592       1.407916       0.140782
 -99.067   0.1350097656  0.82394      235.50000 0.8540       1.459952       0.145993
 -99.982   0.1350097656  0.83463      236.00000 0.8510       1.489562       0.148956
-100.890   0.1350097656  0.83580      236.50000 0.8518       1.481989       0.148199
-101.696   0.1350097656  0.82989      237.00000 0.8569       1.431477       0.143147
-102.376   0.1350097656  0.82269      237.50000 0.8658       1.341574       0.134157
-102.951   0.1350097656  0.81872      238.00000 0.8777       1.223003       0.122299
-103.490   0.1350097656  0.81941      238.50000 0.8909       1.090529       0.109052
-104.109   0.1350097656  0.81928      239.00000 0.9040       0.959993       0.095998
-104.969   0.1350097656  0.81098      239.50000 0.9154       0.845937       0.084593
-106.220   0.1350097656  0.79303      240.00000 0.9240       0.759654       0.075965
 -99.680   0.1396484375  0.90161      235.00000 0.8520       1.480572       0.148046
-100.231   0.1396484375  0.90432      235.50000 0.8488       1.511879       0.151185
-100.979   0.1396484375  0.90093      236.00000 0.8470       1.530120       0.153011
-101.741   0.1396484375  0.89304      236.50000 0.8482       1.517638       0.151764
-102.413   0.1396484375  0.88194      237.00000 0.8534       1.466376       0.146637
-102.954   0.1396484375  0.86896      237.50000 0.8622       1.377997       0.137799
-103.373   0.1396484375  0.85645      238.00000 0.8738       1.261734       0.126173
-103.717   0.1396484375  0.84789      238.50000 0.8869       1.131234       0.113123
-104.078   0.1396484375  0.84583      239.00000 0.8998       1.001540       0.100153
-104.596   0.1396484375  0.84641      239.50000 0.9113       0.886671       0.088666
-102.547   0.1442871094  0.90541      236.50000 0.8456       1.543743       0.154374
-103.094   0.1442871094  0.89379      237.00000 0.8506       1.494406       0.149440
-103.505   0.1442871094  0.87921      237.50000 0.8591       1.409042       0.140904
-103.776   0.1442871094  0.86249      238.00000 0.8704       1.295692       0.129569
-103.941   0.1442871094  0.84573      238.50000 0.8833       1.167185       0.116718
-104.077   0.1442871094  0.83236      239.00000 0.8962       1.038049       0.103804
-104.306   0.1442871094  0.82596      239.50000 0.9078       0.922028       0.092202
-103.752   0.1489257812  0.87562      237.00000 0.8482       1.517648       0.151765
-104.032   0.1489257812  0.86155      237.50000 0.8563       1.436619       0.143661
-104.158   0.1489257812  0.84402      238.00000 0.8673       1.326745       0.132674
-104.154   0.1489257812  0.82381      238.50000 0.8800       1.200272       0.120026
-104.082   0.1489257812  0.80290      239.00000 0.8929       1.071431       0.107142
-104.533   0.1535644531  0.90197      237.50000 0.8538       1.462471       0.146247
-104.514   0.1535644531  0.88503      238.00000 0.8644       1.356501       0.135649
-104.345   0.1535644531  0.86391      238.50000 0.8768       1.232060       0.123205
-104.840   0.1582031250  0.90147      238.00000 0.8614       1.386180       0.138617
 -61.905   0.1582031250  0.88728     2260.50000 0.8417       1.582972       0.158279
 -84.258   0.1582031250  0.75295     2263.50000 0.8885       1.114685       0.111466
 -61.715   0.1628417969  0.90222     2260.50000 0.8453       1.546728       0.154661
 -81.437   0.1628417969  0.84852     2263.00000 0.8930       1.069684       0.106953
 -83.648   0.1628417969  0.80170     2263.50000 0.8893       1.107173       0.110715
 -61.599   0.1674804688  0.89608     2260.50000 0.8492       1.507743       0.150768
 -63.536   0.1674804688  0.89887     2261.00000 0.8588       1.412116       0.141196
 -81.078   0.1674804688  0.84415     2263.00000 0.8939       1.061555       0.106142
 -83.211   0.1674804688  0.79639     2263.50000 0.8901       1.099512       0.109949
 -71.596   0.1721191406  0.75039      400.50000 0.9129       0.870995       0.087099
 -72.047   0.1721191406  0.78877      401.00000 0.9203       0.797145       0.079711
 -61.544   0.1721191406  0.84643     2260.50000 0.8532       1.468139       0.146811
 -63.446   0.1721191406  0.84599     2261.00000 0.8614       1.386202       0.138609
 -80.859   0.1721191406  0.82642     2263.00000 0.8947       1.053334       0.105321
 -82.922   0.1721191406  0.79233     2263.50000 0.8908       1.091974       0.109196
 -71.482   0.1767578125  0.79634      400.50000 0.9108       0.891771       0.089177
 -71.868   0.1767578125  0.82184      401.00000 0.9186       0.813802       0.081377
 -71.217   0.1813964844  0.79613      400.50000 0.9088       0.912403       0.091240
 -71.531   0.1813964844  0.81122      401.00000 0.9171       0.829297       0.082927
 -70.830   0.1860351562  0.80382      400.50000 0.9067       0.933071       0.093307
 -71.060   0.1860351562  0.84644      401.00000 0.9156       0.843637       0.084361
 -70.342   0.1906738281  0.79809      400.50000 0.9046       0.953868       0.095387
 -70.472   0.1906738281  0.82303      401.00000 0.9143       0.856749       0.085672
 -69.771   0.1953125000  0.78584      400.50000 0.9025       0.974817       0.097482
 -69.777   0.1953125000  0.81855      401.00000 0.9132       0.868514       0.086849
 -68.984   0.1999511719  0.79709      401.00000 0.9121       0.878784       0.087876
 -68.423   0.2045898438  0.76553      400.50000 0.8983       1.017005       0.101701
 -68.095   0.2045898438  0.80488      401.00000 0.9113       0.887402       0.088737
 -67.114   0.2092285156  0.78365      401.00000 0.9106       0.894221       0.089419
 -66.852   0.2138671875  0.75302      400.50000 0.8941       1.058903       0.105890
 -66.039   0.2138671875  0.79536      401.00000 0.9101       0.899113       0.089908
 -64.869   0.2185058594  0.77392      401.00000 0.9098       0.901987       0.090196
 -63.603   0.2231445312  0.78746      401.00000 0.9097       0.902797       0.090276
 -55.296   0.2556152344  0.76149     3483.00000 0.9608       0.391720       0.039171
 -56.197   0.2602539062  0.76785     3483.00000 0.9624       0.376432       0.037642
 -68.964   0.2648925781  0.75704     3482.50000 0.9645       0.355272       0.035527
 -57.027   0.2648925781  0.76391     3483.00000 0.9638       0.361525       0.036151
 -70.558   0.2695312500  0.75418     3482.50000 0.9660       0.340095       0.034009
 -57.789   0.2695312500  0.75934     3483.00000 0.9653       0.347006       0.034699
 -58.483   0.2741699219  0.75039     3483.00000 0.9667       0.332888       0.033288
  74.553   0.4179687500  0.76625     2857.00000 0.7138       2.862510       0.286246
-142.858   0.4179687500  0.76493     3619.00000 0.8615       1.385275       0.138526
  74.610   0.4226074219  0.79082     2857.00000 0.7092       2.908364       0.290831
-142.808   0.4226074219  0.77155     3619.00000 0.8590       1.410072       0.141006
  74.667   0.4272460938  0.80862     2857.00000 0.7045       2.955184       0.295512
-142.753   0.4272460938  0.77798     3619.00000 0.8564       1.435553       0.143553
 -86.524   0.4318847656  0.75480     1752.50000 0.9552       0.448380       0.044837
  74.724   0.4318847656  0.82187     2857.00000 0.6997       3.002956       0.300288
-142.692   0.4318847656  0.78422     3619.00000 0.8538       1.461714       0.146169
  55.163   0.4365234375  0.75112     1211.50000 0.6557       3.443880       0.344344
 -85.883   0.4365234375  0.76122     1752.50000 0.9525       0.474533       0.047453
  74.781   0.4365234375  0.83214     2857.00000 0.6948       3.051667       0.305158
-142.626   0.4365234375  0.79026     3619.00000 0.8511       1.488551       0.148852
-109.553   0.4411621094  0.75990     1140.50000 0.5520       4.480104       0.447951
  55.382   0.4411621094  0.75973     1211.50000 0.6482       3.518540       0.351812
 -85.304   0.4411621094  0.76656     1752.50000 0.9499       0.501049       0.050104
  74.838   0.4411621094  0.84041     2857.00000 0.6899       3.101301       0.310120
-142.555   0.4411621094  0.79610     3619.00000 0.8484       1.516062       0.151603
-109.470   0.4458007812  0.77936     1140.50000 0.5424       4.576367       0.457578
  55.594   0.4458007812  0.76793     1211.50000 0.6405       3.595105       0.359469
 -84.778   0.4458007812  0.77092     1752.50000 0.9472       0.527918       0.052791
  74.895   0.4458007812  0.84729     2857.00000 0.6848       3.151846       0.315173
-142.480   0.4458007812  0.80173     3619.00000 0.8456       1.544241       0.154420
-109.388   0.4504394531  0.79625     1140.50000 0.5327       4.673513       0.467293
  55.799   0.4504394531  0.77572     1211.50000 0.6327       3.673556       0.367315
 -84.300   0.4504394531  0.77440     1752.50000 0.9445       0.555135       0.055512
  74.952   0.4504394531  0.85318     2857.00000 0.6797       3.203285       0.320316
-142.400   0.4504394531  0.80716     3619.00000 0.8427       1.573085       0.157304
  55.999   0.4550781250  0.78314     1211.50000 0.6247       3.753868       0.375348
 -83.862   0.4550781250  0.77708     1752.50000 0.9417       0.582693       0.058268
-142.318   0.4550781250  0.81239     3619.00000 0.8397       1.602588       0.160254
  56.194   0.4597167969  0.79018     1211.50000 0.6164       3.836025       0.383565
 -83.462   0.4597167969  0.77905     1752.50000 0.9389       0.610586       0.061057
-142.231   0.4597167969  0.81743     3619.00000 0.8367       1.632748       0.163269
  56.383   0.4643554688  0.82093     1211.50000 0.6080       3.920008       0.391964
 -83.094   0.4643554688  0.81618     1752.50000 0.9361       0.638810       0.063880
-142.142   0.4643554688  0.82031     3619.00000 0.8337       1.663558       0.166349
  56.567   0.4689941406  0.82590     1211.50000 0.5995       4.005800       0.400545
 -82.755   0.4689941406  0.81899     1752.50000 0.9333       0.667361       0.066735
-142.050   0.4689941406  0.82443     3619.00000 0.8305       1.695015       0.169494
  56.745   0.4736328125  0.83066     1211.50000 0.5907       4.093378       0.409304
 -82.442   0.4736328125  0.82128     1752.50000 0.9304       0.696234       0.069622
-141.956   0.4736328125  0.82840     3619.00000 0.8273       1.727113       0.172703
  56.919   0.4782714844  0.83521     1211.50000 0.5818       4.182731       0.418240
 -82.153   0.4782714844  0.82310     1752.50000 0.9275       0.725426       0.072541
-141.860   0.4782714844  0.83224     3619.00000 0.8240       1.759848       0.175975
  57.088   0.4829101562  0.83955     1211.50000 0.5726       4.273838       0.427352
 -81.885   0.4829101562  0.82451     1752.50000 0.9245       0.754932       0.075492
-141.762   0.4829101562  0.83594     3619.00000 0.8207       1.793214       0.179311
  57.253   0.4875488281  0.84370     1211.50000 0.5634       4.366682       0.436638
 -81.637   0.4875488281  0.82554     1752.50000 0.9215       0.784749       0.078473
-141.662   0.4875488281  0.83950     3619.00000 0.8173       1.827207       0.182709
  57.413   0.4921875000  0.84766     1211.50000 0.5539       4.461248       0.446096
 -81.405   0.4921875000  0.82623     1752.50000 0.9185       0.814874       0.081486
-141.561   0.4921875000  0.84294     3619.00000 0.8138       1.861822       0.186169
  57.569   0.4968261719  0.85145     1211.50000 0.5443       4.557520       0.455725
 -81.190   0.4968261719  0.82661     1752.50000 0.9155       0.845303       0.084529
-141.458   0.4968261719  0.84624     3619.00000 0.8103       1.897053       0.189691
  57.721   0.5014648438  0.85506     1211.50000 0.5345       4.655480       0.465522
 -80.989   0.5014648438  0.82671     1752.50000 0.9124       0.876034       0.087602
-141.355   0.5014648438  0.84941     3619.00000 0.8067       1.932894       0.193274
2009  14  3 23 33 350
 -81.948   0.1489257812  0.77342     3360.50000 0.8568       1.431681       0.143155
 -77.576   0.1489257812  0.76815     3361.00000 0.8800       1.199883       0.119980
 -71.183   0.1489257812  0.76292     3361.50000 0.9039       0.960821       0.096079
 -63.215   0.1489257812  0.75795     3362.00000 0.9238       0.761970       0.076197
 -55.959   0.1489257812  0.75286     3362.50000 0.9373       0.626587       0.062652
 -93.953   0.1535644531  0.96570     3347.00000 0.0253      10.259833       1.025982
 -79.340   0.1535644531  0.80743     3361.00000 0.8845       1.154857       0.115482
 -73.508   0.1535644531  0.80235     3361.50000 0.9065       0.935002       0.093500
 -66.264   0.1535644531  0.79696     3362.00000 0.9252       0.748195       0.074819
 -80.841   0.1582031250  0.83322     3361.00000 0.8891       1.109379       0.110936
 -75.378   0.1582031250  0.82878     3361.50000 0.9094       0.906161       0.090616
 -68.600   0.1582031250  0.82349     3362.00000 0.9269       0.730617       0.073060
-105.308   0.1582031250  0.76702     3372.00000 0.8446       1.554296       0.155429
-103.762   0.1582031250  0.76534     3372.50000 0.8615       1.384940       0.138494
-102.493   0.1582031250  0.76206     3373.00000 0.8749       1.250894       0.125089
 -98.447   0.1582031250  0.82274     3378.50000 0.7691       2.309008       0.230869
 -76.910   0.1628417969  0.84621     3361.50000 0.9124       0.875807       0.087581
 -70.417   0.1628417969  0.84147     3362.00000 0.9289       0.710642       0.071061
-104.800   0.1628417969  0.78397     3372.00000 0.8485       1.515274       0.151527
-103.292   0.1628417969  0.78304     3372.50000 0.8636       1.364055       0.136405
-102.069   0.1628417969  0.78193     3373.00000 0.8754       1.246003       0.124600
 -98.428   0.1628417969  0.86226     3378.50000 0.7649       2.351670       0.235134
-105.593   0.1674804688  0.80172     3371.50000 0.8420       1.579971       0.157997
-104.365   0.1674804688  0.80024     3372.00000 0.8519       1.481410       0.148141
-102.882   0.1674804688  0.79916     3372.50000 0.8656       1.343672       0.134367
-101.696   0.1674804688  0.79787     3373.00000 0.8762       1.237810       0.123781
 -98.359   0.1674804688  0.86025     3378.50000 0.7597       2.403723       0.240338
-105.202   0.1721191406  0.80943     3371.50000 0.8457       1.542635       0.154263
-103.988   0.1721191406  0.80714     3372.00000 0.8548       1.451745       0.145174
-102.521   0.1721191406  0.80598     3372.50000 0.8676       1.323903       0.132390
-101.359   0.1721191406  0.80591     3373.00000 0.8773       1.227155       0.122715
-101.204   0.1721191406  0.80703     3373.50000 0.8784       1.216169       0.121616
-104.866   0.1767578125  0.81478     3371.50000 0.8489       1.511163       0.151116
-103.659   0.1767578125  0.81146     3372.00000 0.8574       1.425704       0.142570
-102.197   0.1767578125  0.80989     3372.50000 0.8695       1.304913       0.130491
-101.052   0.1767578125  0.81087     3373.00000 0.8785       1.214729       0.121473
-100.927   0.1767578125  0.81568     3373.50000 0.8791       1.208792       0.120879
-104.599   0.1767578125  0.88055     3376.50000 0.7292       2.708146       0.270788
-109.575   0.1767578125  0.76716     3386.00000 0.8813       1.186977       0.118690
-114.645   0.1767578125  0.75864     3386.50000 0.8741       1.259177       0.125910
-104.576   0.1813964844  0.82095     3371.50000 0.8515       1.484729       0.148473
-103.369   0.1813964844  0.81740     3372.00000 0.8597       1.402938       0.140294
-101.905   0.1813964844  0.81552     3372.50000 0.8713       1.286893       0.128689
-100.765   0.1813964844  0.81606     3373.00000 0.8799       1.201117       0.120112
-100.669   0.1813964844  0.82028     3373.50000 0.8801       1.198645       0.119864
-104.517   0.1813964844  0.88010     3376.50000 0.7273       2.727189       0.272694
-109.427   0.1813964844  0.78000     3386.00000 0.8847       1.153348       0.115326
-114.686   0.1813964844  0.77020     3386.50000 0.8773       1.226796       0.122671
-118.837   0.1813964844  0.75336     3387.00000 0.8625       1.375006       0.137483
-104.324   0.1860351562  0.82272     3371.50000 0.8537       1.462780       0.146278
-103.112   0.1860351562  0.81825     3372.00000 0.8617       1.383242       0.138324
-100.495   0.1860351562  0.81851     3373.00000 0.8813       1.186807       0.118681
-100.423   0.1860351562  0.82788     3373.50000 0.8814       1.186356       0.118635
-105.136   0.1860351562  0.89746     3376.00000 0.7502       2.498258       0.249820
-109.282   0.1860351562  0.78698     3386.00000 0.8878       1.122500       0.112240
-114.730   0.1860351562  0.78038     3386.50000 0.8801       1.198674       0.119857
-104.104   0.1906738281  0.82521     3371.50000 0.8555       1.444927       0.144493
-100.238   0.1906738281  0.81963     3373.00000 0.8828       1.172203       0.117220
-100.186   0.1906738281  0.82841     3373.50000 0.8828       1.172457       0.117245
-101.383   0.1906738281  0.84529     3374.00000 0.8715       1.285031       0.128501
-105.107   0.1906738281  0.89620     3376.00000 0.7501       2.498726       0.249867
-109.142   0.1906738281  0.79250     3386.00000 0.8906       1.094342       0.109424
-104.562   0.1953125000  0.83031     3371.00000 0.8578       1.422443       0.142243
-103.911   0.1953125000  0.82479     3371.50000 0.8569       1.430882       0.143088
 -99.955   0.1953125000  0.83987     3373.50000 0.8843       1.157385       0.115738
-101.211   0.1953125000  0.86177     3374.00000 0.8730       1.269982       0.126997
-105.124   0.1953125000  0.90714     3375.50000 0.7837       2.163092       0.216309
-105.096   0.1953125000  0.90831     3376.00000 0.7506       2.493579       0.249353
-109.009   0.1953125000  0.79002     3386.00000 0.8931       1.068708       0.106860
-104.395   0.1999511719  0.83062     3371.00000 0.8588       1.411954       0.141194
-103.741   0.1999511719  0.82492     3371.50000 0.8580       1.420420       0.142042
 -99.729   0.1999511719  0.83784     3373.50000 0.8859       1.141493       0.114149
-101.045   0.1999511719  0.85957     3374.00000 0.8747       1.253294       0.125328
-105.123   0.1999511719  0.90487     3375.50000 0.7850       2.150213       0.215021
-105.099   0.1999511719  0.90581     3376.00000 0.7517       2.482767       0.248272
-108.889   0.1999511719  0.78896     3386.00000 0.8955       1.045374       0.104526
-104.247   0.2045898438  0.82693     3371.00000 0.8595       1.404948       0.140494
-103.590   0.2045898438  0.82269     3371.50000 0.8587       1.413347       0.141335
 -99.508   0.2045898438  0.85379     3373.50000 0.8875       1.125050       0.112505
-100.884   0.2045898438  0.87422     3374.00000 0.8765       1.235310       0.123529
-105.133   0.2045898438  0.90840     3375.50000 0.7866       2.133875       0.213387
-104.114   0.2092285156  0.82554     3371.00000 0.8599       1.401222       0.140121
-103.455   0.2092285156  0.82115     3371.50000 0.8591       1.409490       0.140949
 -99.290   0.2092285156  0.85014     3373.50000 0.8892       1.108257       0.110826
-100.727   0.2092285156  0.87046     3374.00000 0.8784       1.216312       0.121630
-102.740   0.2092285156  0.88659     3374.50000 0.8557       1.442908       0.144288
-104.347   0.2092285156  0.89759     3375.00000 0.8240       1.759746       0.175973
-105.152   0.2092285156  0.90465     3375.50000 0.7885       2.114633       0.211463
-102.753   0.2138671875  0.79313     2199.50000 0.6933       3.067007       0.306684
-103.995   0.2138671875  0.81722     3371.00000 0.8599       1.400590       0.140058
 -99.076   0.2138671875  0.86601     3373.50000 0.8909       1.091252       0.109125
-100.571   0.2138671875  0.87970     3374.00000 0.8803       1.196517       0.119650
-102.671   0.2138671875  0.88921     3374.50000 0.8578       1.422080       0.142205
-104.342   0.2138671875  0.89633     3375.00000 0.8261       1.738901       0.173889
-105.176   0.2138671875  0.90238     3375.50000 0.7907       2.093098       0.209310
-103.886   0.2185058594  0.81391     3371.00000 0.8597       1.402877       0.140287
 -98.866   0.2185058594  0.86075     3373.50000 0.8926       1.074123       0.107412
-100.418   0.2185058594  0.87418     3374.00000 0.8824       1.176091       0.117608
-102.606   0.2185058594  0.88351     3374.50000 0.8600       1.400339       0.140031
-104.341   0.2185058594  0.89051     3375.00000 0.8283       1.716914       0.171690
-105.204   0.2185058594  0.89642     3375.50000 0.7930       2.069885       0.206988
-103.785   0.2231445312  0.80139     3371.00000 0.8592       1.407917       0.140791
 -98.659   0.2231445312  0.87075     3373.50000 0.8943       1.056919       0.105692
-100.266   0.2231445312  0.87669     3374.00000 0.8845       1.155152       0.115514
-102.544   0.2231445312  0.88041     3374.50000 0.8622       1.377902       0.137787
-104.345   0.2231445312  0.88441     3375.00000 0.8306       1.694144       0.169413
-105.235   0.2231445312  0.88998     3375.50000 0.7954       2.045574       0.204557
 -94.717   0.2231445312  0.92387     3379.00000 0.5843       4.156990       0.415699
-103.691   0.2277832031  0.79533     3371.00000 0.8584       1.415543       0.141554
 -98.455   0.2277832031  0.86210     3373.50000 0.8960       1.039657       0.103966
-100.115   0.2277832031  0.86747     3374.00000 0.8866       1.133783       0.113377
-102.485   0.2277832031  0.87065     3374.50000 0.8645       1.354936       0.135491
-104.352   0.2277832031  0.87418     3375.00000 0.8329       1.670896       0.167088
-105.268   0.2277832031  0.87933     3375.50000 0.7979       2.020690       0.202069
 -94.523   0.2277832031  0.91564     3379.00000 0.5418       4.581924       0.458192
-103.414   0.2324218750  0.78933     3370.50000 0.8711       1.288780       0.128874
-103.603   0.2324218750  0.78732     3371.00000 0.8574       1.425591       0.142559
 -98.255   0.2324218750  0.84981     3373.50000 0.8978       1.022333       0.102233
 -99.963   0.2324218750  0.85441     3374.00000 0.8888       1.112035       0.111202
-102.428   0.2324218750  0.85690     3374.50000 0.8668       1.331573       0.133154
-104.362   0.2324218750  0.85982     3375.00000 0.8353       1.647420       0.164740
-105.303   0.2324218750  0.86443     3375.50000 0.8004       1.995687       0.199569
 -94.353   0.2324218750  0.90318     3379.00000 0.4886       5.113612       0.511358
-103.310   0.2370605469  0.77191     3370.50000 0.8703       1.296572       0.129653
-103.520   0.2370605469  0.77693     3371.00000 0.8562       1.437901       0.143790
 -98.056   0.2370605469  0.84035     3373.50000 0.8995       1.004928       0.100493
 -99.811   0.2370605469  0.83933     3374.00000 0.8910       1.089942       0.108993
-102.372   0.2370605469  0.83744     3374.50000 0.8692       1.307910       0.130788
-104.374   0.2370605469  0.83757     3375.00000 0.8376       1.623919       0.162390
  58.943   0.2416992188  0.75266     2152.00000 0.9727       0.272752       0.027273
-103.207   0.2416992188  0.76318     3370.50000 0.8694       1.306131       0.130609
-103.443   0.2416992188  0.76656     3371.00000 0.8548       1.452314       0.145231
 -97.859   0.2416992188  0.80681     3373.50000 0.9013       0.987415       0.098741
 -99.657   0.2416992188  0.80462     3374.00000 0.8932       1.067519       0.106750
-102.318   0.2416992188  0.80157     3374.50000 0.8716       1.284021       0.128398
-104.388   0.2416992188  0.80054     3375.00000 0.8399       1.600549       0.160052
  59.859   0.2463378906  0.76214     2152.00000 0.9733       0.267402       0.026738
-103.104   0.2463378906  0.75263     3370.50000 0.8683       1.317334       0.131729
-103.371   0.2463378906  0.75249     3371.00000 0.8531       1.468673       0.146867
 -97.662   0.2463378906  0.75091     3373.50000 0.9030       0.969762       0.096976
  47.657   0.2509765625  0.75818     2151.50000 0.9703       0.297294       0.029729
  60.681   0.2509765625  0.76503     2152.00000 0.9739       0.261259       0.026124
  48.160   0.2556152344  0.76521     2151.50000 0.9712       0.288148       0.028815
  61.422   0.2556152344  0.77188     2152.00000 0.9746       0.254478       0.025446
-102.527   0.2556152344  0.82065     2370.50000 0.8452       1.547821       0.154765
  48.485   0.2602539062  0.77102     2151.50000 0.9722       0.278450       0.027845
  62.090   0.2602539062  0.77728     2152.00000 0.9753       0.247175       0.024716
-102.859   0.2602539062  0.81339     2370.50000 0.8495       1.505419       0.150526
  48.638   0.2648925781  0.77034     2151.50000 0.9732       0.268335       0.026833
  82.621   0.2648925781  0.76696     2154.00000 0.9442       0.558103       0.055809
-103.164   0.2648925781  0.79470     2370.50000 0.8533       1.467359       0.146720
  48.624   0.2695312500  0.77437     2151.50000 0.9742       0.257900       0.025790
  83.071   0.2695312500  0.76727     2154.00000 0.9435       0.565440       0.056543
-103.442   0.2695312500  0.78306     2370.50000 0.8567       1.433188       0.143304
  48.439   0.2741699219  0.77751     2151.50000 0.9753       0.247220       0.024722
  83.493   0.2741699219  0.76329     2154.00000 0.9427       0.572811       0.057280
-103.692   0.2741699219  0.76965     2370.50000 0.8598       1.402513       0.140237
  48.076   0.2788085938  0.77978     2151.50000 0.9764       0.236352       0.023635
  83.889   0.2788085938  0.75503     2154.00000 0.9420       0.580242       0.058023
-103.915   0.2788085938  0.75447     2370.50000 0.8625       1.374983       0.137484
  47.525   0.2834472656  0.76960     2151.50000 0.9775       0.225341       0.022534
  46.768   0.2880859375  0.76982     2151.50000 0.9786       0.214228       0.021423
  45.781   0.2927246094  0.76910     2151.50000 0.9797       0.203048       0.020305
  44.535   0.2973632812  0.76730     2151.50000 0.9808       0.191844       0.019184
  42.988   0.3020019531  0.75025     2151.50000 0.9819       0.180661       0.018066
-102.063   0.3251953125  0.75716     3370.50000 0.8333       1.667334       0.166731
  84.267   0.3808593750  0.75370     2403.50000 0.8284       1.716167       0.171600
  84.232   0.3854980469  0.76549     2403.50000 0.8252       1.748016       0.174786
  84.207   0.3901367188  0.78028     2403.50000 0.8220       1.780603       0.178046
  84.192   0.3947753906  0.79819     2403.50000 0.8186       1.813969       0.181383
  84.186   0.3994140625  0.81850     2403.50000 0.8152       1.848147       0.184802
  84.190   0.4040527344  0.83902     2403.50000 0.8117       1.883170       0.188305
  66.354   0.4086914062  0.75271      769.50000 0.9348       0.652213       0.065221
  84.203   0.4086914062  0.85596     2403.50000 0.8081       1.919067       0.191896
  66.292   0.4133300781  0.76807      769.50000 0.9337       0.662897       0.066290
-115.686   0.4133300781  0.76214      770.50000 0.9649       0.351101       0.035107
  84.225   0.4133300781  0.86501     2403.50000 0.8044       1.955863       0.195576
  66.239   0.4179687500  0.78703      769.50000 0.9326       0.673788       0.067379
-115.616   0.4179687500  0.76460      770.50000 0.9634       0.366226       0.036619
 131.027   0.4179687500  0.76477     1204.00000 0.9286       0.713931       0.071392
  66.194   0.4226074219  0.80061      769.50000 0.9315       0.684882       0.068488
-115.555   0.4226074219  0.77628      770.50000 0.9619       0.381520       0.038148
 130.624   0.4226074219  0.77141     1204.00000 0.9265       0.735021       0.073501
  66.157   0.4272460938  0.81299      769.50000 0.9304       0.696178       0.069618
 130.226   0.4272460938  0.77757     1204.00000 0.9243       0.756782       0.075677
  66.127   0.4318847656  0.82431      769.50000 0.9292       0.707670       0.070767
 129.833   0.4318847656  0.78328     1204.00000 0.9221       0.779210       0.077920
  66.104   0.4365234375  0.83466      769.50000 0.9281       0.719357       0.071935
 129.447   0.4365234375  0.78859     1204.00000 0.9198       0.802301       0.080229
  66.087   0.4411621094  0.84412      769.50000 0.9269       0.731236       0.073123
 129.068   0.4411621094  0.79353     1204.00000 0.9174       0.826049       0.082604
  66.076   0.4458007812  0.85276      769.50000 0.9257       0.743304       0.074330
 128.695   0.4458007812  0.79814     1204.00000 0.9150       0.850450       0.085045
  41.534   0.4458007812  0.75098     3321.00000 0.9408       0.591597       0.059160
  66.071   0.4504394531  0.86066      769.50000 0.9244       0.755558       0.075555
 128.330   0.4504394531  0.80243     1204.00000 0.9125       0.875497       0.087549
  41.687   0.4504394531  0.75496     3321.00000 0.9394       0.606362       0.060636
  66.072   0.4550781250  0.86788      769.50000 0.9232       0.767998       0.076799
 127.973   0.4550781250  0.80644     1204.00000 0.9099       0.901186       0.090118
  41.840   0.4550781250  0.75859     3321.00000 0.9379       0.621402       0.062140
  66.077   0.4597167969  0.87447      769.50000 0.9219       0.780619       0.078061
 127.623   0.4597167969  0.81017     1204.00000 0.9072       0.927508       0.092751
  41.992   0.4597167969  0.76189     3321.00000 0.9363       0.636714       0.063671
  66.087   0.4643554688  0.89666      769.50000 0.9207       0.793422       0.079341
 127.282   0.4643554688  0.79441     1204.00000 0.9046       0.954458       0.095446
 117.364   0.4643554688  0.78653     1210.00000 0.8010       1.990285       0.199005
  96.775   0.4643554688  0.75899     2234.00000 0.8067       1.932724       0.193256
 -91.683   0.4643554688  0.78803     2236.00000 0.6930       3.069601       0.306957
  11.981   0.4643554688  0.75739     3294.50000 0.9841       0.159166       0.015916
  66.102   0.4689941406  0.90230      769.50000 0.9194       0.806402       0.080639
 126.948   0.4689941406  0.79790     1204.00000 0.9018       0.982027       0.098203
 117.273   0.4689941406  0.78813     1210.00000 0.7964       2.036394       0.203616
 -91.402   0.4689941406  0.75224     1954.00000 0.6851       3.149281       0.314923
 -91.639   0.4689941406  0.79735     2236.00000 0.6872       3.128083       0.312806
  12.760   0.4689941406  0.76176     3294.50000 0.9833       0.166561       0.016656
-129.649   0.4689941406  0.76785     3323.50000 0.9525       0.475174       0.047517
  66.120   0.4736328125  0.90743      769.50000 0.9180       0.819558       0.081955
 126.622   0.4736328125  0.80115     1204.00000 0.8990       1.010210       0.101021
 117.183   0.4736328125  0.78980     1210.00000 0.7917       2.082944       0.208271
 -91.457   0.4736328125  0.76471     1954.00000 0.6778       3.222262       0.322220
 -91.595   0.4736328125  0.80513     2236.00000 0.6812       3.187645       0.318763
  13.481   0.4736328125  0.76572     3294.50000 0.9826       0.174081       0.017408
-129.720   0.4736328125  0.79082     3323.50000 0.9514       0.485769       0.048577
  66.142   0.4782714844  0.91210      769.50000 0.9167       0.832890       0.083288
 126.305   0.4782714844  0.80417     1204.00000 0.8961       1.038997       0.103900
 117.096   0.4782714844  0.79156     1210.00000 0.7870       2.129929       0.212970
 -91.511   0.4782714844  0.77700     1954.00000 0.6704       3.295913       0.329584
 -91.550   0.4782714844  0.81173     2236.00000 0.6752       3.248269       0.324825
  14.151   0.4782714844  0.76930     3294.50000 0.9818       0.181722       0.018172
  42.588   0.4782714844  0.75151     3321.00000 0.9299       0.700644       0.070064
-129.783   0.4782714844  0.80647     3323.50000 0.9503       0.496602       0.049660
  66.168   0.4829101562  0.91634      769.50000 0.9154       0.846392       0.084638
 125.995   0.4829101562  0.80698     1204.00000 0.8932       1.068382       0.106838
 117.011   0.4829101562  0.79343     1210.00000 0.7823       2.177344       0.217711
 -91.505   0.4829101562  0.81744     2236.00000 0.6690       3.309947       0.330993
  42.733   0.4829101562  0.75375     3321.00000 0.9283       0.717286       0.071729
-129.840   0.4829101562  0.81653     3323.50000 0.9492       0.507671       0.050767
  66.197   0.4875488281  0.92018      769.50000 0.9140       0.860068       0.086005
 125.694   0.4875488281  0.80959     1204.00000 0.8902       1.098356       0.109836
 116.928   0.4875488281  0.79540     1210.00000 0.7775       2.225179       0.222494
 -91.460   0.4875488281  0.82243     2236.00000 0.6627       3.372672       0.337266
  42.877   0.4875488281  0.75577     3321.00000 0.9266       0.734188       0.073419
-129.891   0.4875488281  0.82284     3323.50000 0.9481       0.518973       0.051897
  66.229   0.4921875000  0.92367      769.50000 0.9126       0.873910       0.087389
 125.401   0.4921875000  0.81201     1204.00000 0.8871       1.128911       0.112891
 116.847   0.4921875000  0.79748     1210.00000 0.7727       2.273431       0.227319
 -91.415   0.4921875000  0.82686     2236.00000 0.6564       3.436429       0.343642
  43.019   0.4921875000  0.75759     3321.00000 0.9249       0.751347       0.075135
-129.937   0.4921875000  0.82676     3323.50000 0.9469       0.530505       0.053050
 125.115   0.4968261719  0.81424     1204.00000 0.8840       1.160038       0.116004
 116.768   0.4968261719  0.79966     1210.00000 0.7678       2.322090       0.232185
 -91.370   0.4968261719  0.83082     2236.00000 0.6499       3.501208       0.350120
  43.159   0.4968261719  0.75923     3321.00000 0.9231       0.768762       0.076876
-129.977   0.4968261719  0.82923     3323.50000 0.9458       0.542266       0.054226
-138.049   0.5014648438  0.75424      501.50000 0.8901       1.099375       0.109922
 124.838   0.5014648438  0.81630     1204.00000 0.8808       1.191729       0.119173
 116.690   0.5014648438  0.80193     1210.00000 0.7629       2.371150       0.237091
 -91.324   0.5014648438  0.83439     2236.00000 0.6433       3.566999       0.356699
  43.297   0.5014648438  0.76069     3321.00000 0.9214       0.786428       0.078643
2009  14  4 31 28 350
  78.789   0.1118164062  0.80233      113.50000 0.8838       1.161675       0.116167
  80.240   0.1118164062  0.79481      114.00000 0.9037       0.962783       0.096278
  82.223   0.1118164062  0.78308      114.50000 0.9225       0.774723       0.077471
  78.530   0.1164550781  0.83343      114.00000 0.9089       0.910608       0.091060
  79.395   0.1164550781  0.82133      114.50000 0.9244       0.755923       0.075591
  76.980   0.1210937500  0.86222      114.00000 0.9140       0.859556       0.085955
  77.036   0.1210937500  0.84800      114.50000 0.9272       0.727864       0.072786
  75.445   0.1257324219  0.86250      114.00000 0.9190       0.809746       0.080975
  74.829   0.1257324219  0.85037      114.50000 0.9305       0.694961       0.069496
  70.215   0.1350097656  0.81806      114.50000 0.9376       0.624275       0.062427
  67.615   0.1396484375  0.78489      114.50000 0.9411       0.589355       0.058935
-147.107   0.1535644531  0.75046     3196.50000 0.7153       2.846951       0.284694
-145.866   0.1582031250  0.77120     3196.50000 0.7325       2.675128       0.267511
-145.735   0.1582031250  0.78381     3197.00000 0.7175       2.825493       0.282518
  48.036   0.1767578125  0.79822     2058.00000 0.7498       2.502058       0.250177
-110.999   0.1767578125  0.89163     3441.50000 0.6108       3.892881       0.389249
  48.372   0.1813964844  0.76266     2058.00000 0.7632       2.368385       0.236819
-110.902   0.1813964844  0.88976     3441.50000 0.5997       4.003655       0.400341
  48.687   0.1860351562  0.76855     2058.00000 0.7757       2.243188       0.224306
  45.443   0.1860351562  0.76402     3774.50000 0.8655       1.344989       0.134498
  48.979   0.1906738281  0.76496     2058.00000 0.7873       2.127395       0.212731
-108.862   0.1906738281  0.87884     3441.00000 0.5417       4.583181       0.458309
  45.951   0.1906738281  0.76577     3774.50000 0.8684       1.315643       0.131564
-136.891   0.1953125000  0.76117     1638.00000 0.8416       1.584066       0.158405
-108.721   0.1953125000  0.88657     3441.00000 0.5296       4.703819       0.470380
  45.502   0.1953125000  0.77148     3774.00000 0.8815       1.185224       0.118521
  46.473   0.1953125000  0.80517     3774.50000 0.8711       1.289266       0.128926
-136.808   0.1999511719  0.78067     1638.00000 0.8423       1.577319       0.157729
-108.561   0.1999511719  0.87219     3441.00000 0.5192       4.807960       0.480796
  46.024   0.1999511719  0.76877     3774.00000 0.8837       1.163421       0.116340
  47.017   0.1999511719  0.79839     3774.50000 0.8734       1.265711       0.126571
-136.626   0.2045898438  0.80361     1638.00000 0.8432       1.568434       0.156840
-136.915   0.2045898438  0.80699     1638.50000 0.8432       1.567888       0.156785
  49.056   0.2045898438  0.81488     2643.00000 0.9282       0.718393       0.071830
  46.740   0.2045898438  0.75442     2643.50000 0.9242       0.757649       0.075757
  48.305   0.2045898438  0.76075     3770.50000 0.9249       0.751253       0.075125
  50.152   0.2045898438  0.77792     3771.00000 0.9322       0.678473       0.067844
  46.574   0.2045898438  0.80794     3774.00000 0.8856       1.143940       0.114392
  47.588   0.2045898438  0.82143     3774.50000 0.8755       1.244843       0.124484
-136.773   0.2092285156  0.81600     1638.50000 0.8426       1.574181       0.157415
  48.679   0.2092285156  0.82461     2643.00000 0.9288       0.711946       0.071186
  46.117   0.2092285156  0.76486     2643.50000 0.9250       0.749580       0.074951
  47.030   0.2092285156  0.77675     3770.50000 0.9265       0.734723       0.073472
  49.180   0.2092285156  0.79146     3771.00000 0.9342       0.657721       0.065769
  47.154   0.2092285156  0.79967     3774.00000 0.8873       1.126681       0.112665
  48.187   0.2092285156  0.80966     3774.50000 0.8773       1.226533       0.122653
-136.536   0.2138671875  0.83242     1638.50000 0.8422       1.577935       0.157791
  53.100   0.2138671875  0.87714     2642.50000 0.9295       0.705316       0.070524
  48.287   0.2138671875  0.88089     2643.00000 0.9295       0.705252       0.070518
  45.486   0.2138671875  0.83560     2643.50000 0.9258       0.741589       0.074153
  44.942   0.2138671875  0.77412     2644.00000 0.9204       0.796314       0.079626
-106.495   0.2138671875  0.82434     3440.50000 0.4274       5.726575       0.572648
  45.713   0.2138671875  0.80883     3770.50000 0.9281       0.718862       0.071886
  48.146   0.2138671875  0.80817     3771.00000 0.9363       0.636946       0.063691
  47.763   0.2138671875  0.82735     3774.00000 0.8888       1.111541       0.111151
  48.815   0.2138671875  0.82851     3774.50000 0.8789       1.210649       0.121065
-146.030   0.2185058594  0.79412     1636.00000 0.8011       1.989556       0.198936
-136.211   0.2185058594  0.82741     1638.50000 0.8421       1.578771       0.157875
  61.123   0.2185058594  0.81949     2639.50000 0.7940       2.059953       0.205992
  63.298   0.2185058594  0.82441     2640.00000 0.8381       1.619024       0.161902
  52.999   0.2185058594  0.87139     2642.50000 0.9300       0.699999       0.069994
  47.878   0.2185058594  0.87580     2643.00000 0.9302       0.698458       0.069840
  44.845   0.2185058594  0.84185     2643.50000 0.9266       0.733777       0.073372
  44.177   0.2185058594  0.78529     2644.00000 0.9213       0.787497       0.078745
  45.200   0.2185058594  0.75872     2644.50000 0.9157       0.842651       0.084259
-106.215   0.2185058594  0.79726     3440.50000 0.4169       5.830674       0.583064
  44.348   0.2185058594  0.82242     3770.50000 0.9296       0.703571       0.070357
  47.040   0.2185058594  0.81909     3771.00000 0.9384       0.616077       0.061604
  48.400   0.2185058594  0.81610     3774.00000 0.8902       1.098410       0.109837
  49.468   0.2185058594  0.81548     3774.50000 0.8803       1.197054       0.119705
-146.206   0.2231445312  0.80619     1636.00000 0.8032       1.968469       0.196830
-135.804   0.2231445312  0.84368     1638.50000 0.8424       1.576448       0.157643
  61.617   0.2231445312  0.81157     2639.50000 0.7844       2.156148       0.215612
  63.700   0.2231445312  0.81671     2640.00000 0.8351       1.649220       0.164921
  65.063   0.2231445312  0.82727     2640.50000 0.8698       1.302446       0.130243
  58.792   0.2231445312  0.86697     2642.00000 0.9249       0.750583       0.075055
  52.877   0.2231445312  0.86526     2642.50000 0.9306       0.694404       0.069435
  47.453   0.2231445312  0.86495     2643.00000 0.9308       0.691686       0.069163
  44.197   0.2231445312  0.86840     2643.50000 0.9274       0.726227       0.072618
  43.416   0.2231445312  0.84343     2644.00000 0.9221       0.779121       0.077908
  44.408   0.2231445312  0.79041     2644.50000 0.9167       0.833297       0.083324
  42.930   0.2231445312  0.84644     3770.50000 0.9311       0.688774       0.068877
  45.846   0.2231445312  0.84028     3771.00000 0.9405       0.595064       0.059503
  49.061   0.2231445312  0.84143     3774.00000 0.8913       1.087176       0.108713
  50.143   0.2231445312  0.83332     3774.50000 0.8814       1.185601       0.118560
-146.379   0.2277832031  0.79549     1636.00000 0.8050       1.949790       0.194964
-135.323   0.2277832031  0.82663     1638.50000 0.8429       1.570858       0.157085
  64.070   0.2277832031  0.80487     2640.00000 0.8331       1.668612       0.166859
  65.415   0.2277832031  0.81603     2640.50000 0.8692       1.308449       0.130842
  65.520   0.2277832031  0.84067     2641.00000 0.8948       1.051546       0.105154
  58.932   0.2277832031  0.85987     2642.00000 0.9254       0.746511       0.074649
  52.736   0.2277832031  0.85614     2642.50000 0.9311       0.688668       0.068862
  47.011   0.2277832031  0.85337     2643.00000 0.9315       0.685037       0.068499
  43.540   0.2277832031  0.85514     2643.50000 0.9281       0.719002       0.071896
  42.658   0.2277832031  0.84127     2644.00000 0.9229       0.771212       0.077118
  43.634   0.2277832031  0.79791     2644.50000 0.9176       0.824504       0.082446
  41.457   0.2277832031  0.86394     3770.50000 0.9326       0.674421       0.067442
  44.550   0.2277832031  0.85730     3771.00000 0.9426       0.573879       0.057384
  49.741   0.2277832031  0.82933     3774.00000 0.8922       1.077717       0.107767
  50.832   0.2277832031  0.82077     3774.50000 0.8824       1.176133       0.117613
-146.550   0.2324218750  0.78207     1636.00000 0.8067       1.933583       0.193345
-134.773   0.2324218750  0.80879     1638.50000 0.8438       1.562021       0.156201
  64.407   0.2324218750  0.78883     2640.00000 0.8324       1.675943       0.167591
  65.737   0.2324218750  0.80038     2640.50000 0.8690       1.309713       0.130967
  65.853   0.2324218750  0.82563     2641.00000 0.8949       1.050838       0.105083
  63.776   0.2324218750  0.85408     2641.50000 0.9136       0.864135       0.086413
  59.052   0.2324218750  0.85072     2642.00000 0.9258       0.742102       0.074209
  52.574   0.2324218750  0.84502     2642.50000 0.9317       0.682905       0.068287
  46.552   0.2324218750  0.83973     2643.00000 0.9321       0.678589       0.067855
  42.874   0.2324218750  0.83903     2643.50000 0.9288       0.712149       0.071212
  41.905   0.2324218750  0.83338     2644.00000 0.9236       0.763788       0.076376
  42.878   0.2324218750  0.80080     2644.50000 0.9184       0.816259       0.081622
  39.925   0.2324218750  0.86202     3770.50000 0.9340       0.660470       0.066047
  43.135   0.2324218750  0.85515     3771.00000 0.9448       0.552509       0.055247
  50.434   0.2324218750  0.81666     3774.00000 0.8930       1.069907       0.106985
  51.532   0.2324218750  0.80780     3774.50000 0.8832       1.168485       0.116848
-146.718   0.2370605469  0.80898     1636.00000 0.8080       1.919913       0.191980
-134.162   0.2370605469  0.80071     1638.50000 0.8450       1.550062       0.155006
  66.029   0.2370605469  0.79753     2640.50000 0.8693       1.306698       0.130663
  66.162   0.2370605469  0.83750     2641.00000 0.8952       1.048479       0.104846
  64.041   0.2370605469  0.83941     2641.50000 0.9139       0.860923       0.086092
  59.151   0.2370605469  0.83826     2642.00000 0.9263       0.737494       0.073748
  52.392   0.2370605469  0.83312     2642.50000 0.9323       0.677206       0.067718
  46.076   0.2370605469  0.82501     2643.00000 0.9328       0.672404       0.067237
  42.202   0.2370605469  0.81637     2643.50000 0.9294       0.705704       0.070567
  41.157   0.2370605469  0.81212     2644.00000 0.9243       0.756858       0.075683
  42.142   0.2370605469  0.81130     2644.50000 0.9191       0.808549       0.080851
  38.334   0.2370605469  0.84567     3770.50000 0.9353       0.646895       0.064689
  51.136   0.2370605469  0.84104     3774.00000 0.8936       1.063614       0.106355
  52.234   0.2370605469  0.82438     3774.50000 0.8838       1.162487       0.116249
-146.884   0.2416992188  0.79697     1636.00000 0.8091       1.908835       0.190874
-133.495   0.2416992188  0.77965     1638.50000 0.8465       1.535186       0.153518
  66.294   0.2416992188  0.77099     2640.50000 0.8700       1.300031       0.129994
  66.449   0.2416992188  0.82135     2641.00000 0.8955       1.044817       0.104478
  64.286   0.2416992188  0.82315     2641.50000 0.9143       0.857254       0.085725
  59.230   0.2416992188  0.82110     2642.00000 0.9267       0.732803       0.073280
  52.191   0.2416992188  0.81446     2642.50000 0.9328       0.671647       0.067162
  45.585   0.2416992188  0.80436     2643.00000 0.9334       0.666528       0.066650
  41.522   0.2416992188  0.79313     2643.50000 0.9300       0.699688       0.069966
  40.415   0.2416992188  0.78543     2644.00000 0.9250       0.750422       0.075040
  41.426   0.2416992188  0.78611     2644.50000 0.9199       0.801354       0.080132
  36.682   0.2416992188  0.82766     3770.50000 0.9366       0.633676       0.063368
  51.840   0.2416992188  0.82805     3774.00000 0.8941       1.058700       0.105863
-147.048   0.2463378906  0.78375     1636.00000 0.8100       1.900402       0.190032
  66.715   0.2463378906  0.78839     2641.00000 0.8960       1.040187       0.104014
  64.512   0.2463378906  0.79029     2641.50000 0.9147       0.853299       0.085329
  59.291   0.2463378906  0.78734     2642.00000 0.9272       0.728122       0.072812
  51.970   0.2463378906  0.77925     2642.50000 0.9334       0.666284       0.066627
  45.078   0.2463378906  0.76730     2643.00000 0.9339       0.660994       0.066097
  40.836   0.2463378906  0.75370     2643.50000 0.9306       0.694115       0.069409
  34.970   0.2463378906  0.80876     3770.50000 0.9379       0.620798       0.062080
  52.540   0.2463378906  0.81423     3774.00000 0.8945       1.055028       0.105495
-147.209   0.2509765625  0.82494     1636.00000 0.8105       1.894658       0.189459
  33.200   0.2509765625  0.78971     3770.50000 0.9392       0.608246       0.060825
  53.233   0.2509765625  0.83255     3774.00000 0.8948       1.052462       0.105237
  31.374   0.2556152344  0.77040     3770.50000 0.9404       0.596005       0.059601
  53.914   0.2556152344  0.81688     3774.00000 0.8949       1.050863       0.105077
  29.495   0.2602539062  0.75053     3770.50000 0.9416       0.584057       0.058406
  54.579   0.2602539062  0.79957     3774.00000 0.8950       1.050102       0.105000
  55.224   0.2648925781  0.80257     3774.00000 0.8950       1.050052       0.104994
  55.848   0.2695312500  0.78030     3774.00000 0.8950       1.050594       0.105047
 -84.703   0.2834472656  0.79580     1827.00000 0.9060       0.940347       0.094034
 -84.749   0.2880859375  0.79035     1827.00000 0.9048       0.951584       0.095158
 -84.794   0.2927246094  0.77654     1827.00000 0.9036       0.963508       0.096350
 -84.838   0.2973632812  0.75042     1827.00000 0.9024       0.976058       0.097606
