  70.686   0.0700683594  0.75931     3856.50000 0.8651       1.348711       0.134867
  71.188   0.0700683594  0.76073     3857.00000 0.8676       1.324326       0.132430
  85.807   0.0700683594  0.77635     3864.50000 0.9370       0.630324       0.063032
  86.386   0.0700683594  0.77735     3865.00000 0.9361       0.639332       0.063932
  86.617   0.0700683594  0.77830     3865.50000 0.9340       0.659696       0.065968
  86.530   0.0700683594  0.77923     3866.00000 0.9309       0.690561       0.069053
  86.183   0.0700683594  0.78017     3866.50000 0.9269       0.730848       0.073081
  85.645   0.0700683594  0.78122     3867.00000 0.9221       0.779295       0.077924
  79.862   0.0700683594  0.81095     3871.00000 0.8732       1.267907       0.126775
  79.202   0.0700683594  0.81980     3871.50000 0.8686       1.314118       0.131395
  64.806   0.0700683594  0.95585     3882.50000 0.9134       0.865944       0.086584
  65.478   0.0700683594  0.95618     3883.00000 0.9080       0.920435       0.092034
  66.194   0.0700683594  0.95592     3883.50000 0.9017       0.983061       0.098297
  66.910   0.0700683594  0.95494     3884.00000 0.8948       1.052065       0.105197
  67.596   0.0700683594  0.95320     3884.50000 0.8875       1.125573       0.112548
  68.235   0.0700683594  0.95074     3885.00000 0.8798       1.201609       0.120151
  68.821   0.0700683594  0.94770     3885.50000 0.8722       1.278115       0.127800
  69.350   0.0700683594  0.94429     3886.00000 0.8647       1.352955       0.135283
  69.824   0.0700683594  0.94073     3886.50000 0.8576       1.423930       0.142379
  70.248   0.0700683594  0.93724     3887.00000 0.8511       1.488803       0.148865
  70.625   0.0700683594  0.93399     3887.50000 0.8455       1.545340       0.154517
  76.844   0.0700683594  0.93428     3899.50000 0.9053       0.946986       0.094694
  76.445   0.0700683594  0.93472     3900.00000 0.9001       0.999524       0.099947
  75.970   0.0700683594  0.93506     3900.50000 0.8941       1.058948       0.105889
  75.441   0.0700683594  0.93524     3901.00000 0.8876       1.123643       0.112358
  74.875   0.0700683594  0.93526     3901.50000 0.8808       1.191890       0.119182
  74.287   0.0700683594  0.93510     3902.00000 0.8738       1.261854       0.126178
  73.687   0.0700683594  0.93478     3902.50000 0.8668       1.331586       0.133151
  73.084   0.0700683594  0.93433     3903.00000 0.8601       1.399024       0.139894
  93.457   0.0700683594  0.93999     3916.00000 0.9212       0.788270       0.078827
  93.954   0.0700683594  0.93933     3916.50000 0.9175       0.824582       0.082458
  93.870   0.0700683594  0.93775     3917.00000 0.9130       0.869809       0.086977
  72.213   0.0700683594  0.86690     3925.00000 0.8169       1.830676       0.183050
  71.525   0.0700683594  0.86367     3925.50000 0.8187       1.812755       0.181269
  71.171   0.0747070312  0.79591     3464.50000 0.8653       1.346855       0.134670
  72.037   0.0747070312  0.80733     3465.00000 0.8639       1.361577       0.136149
  62.379   0.0747070312  0.77696     3476.00000 0.9017       0.983329       0.098323
  89.312   0.0747070312  0.76351     3572.50000 0.8668       1.332125       0.133211
  88.785   0.0747070312  0.78095     3573.00000 0.8685       1.315107       0.131509
  88.254   0.0747070312  0.79838     3573.50000 0.8704       1.295740       0.129571
  87.727   0.0747070312  0.81879     3574.00000 0.8726       1.274540       0.127450
  87.209   0.0747070312  0.83766     3574.50000 0.8748       1.252025       0.125197
  86.706   0.0747070312  0.85194     3575.00000 0.8771       1.228703       0.122864
  86.224   0.0747070312  0.86078     3575.50000 0.8795       1.205061       0.120498
  85.769   0.0747070312  0.86555     3576.00000 0.8819       1.181556       0.118147
  85.347   0.0747070312  0.86777     3576.50000 0.8841       1.158611       0.115852
  84.962   0.0747070312  0.86848     3577.00000 0.8863       1.136608       0.113651
  84.621   0.0747070312  0.86830     3577.50000 0.8884       1.115885       0.111578
  84.328   0.0747070312  0.86763     3578.00000 0.8903       1.096735       0.109663
  84.086   0.0747070312  0.86671     3578.50000 0.8921       1.079399       0.107929
  83.898   0.0747070312  0.86567     3579.00000 0.8936       1.064071       0.106396
  83.767   0.0747070312  0.86462     3579.50000 0.8949       1.050891       0.105079
  83.692   0.0747070312  0.86364     3580.00000 0.8960       1.039944       0.103985
  83.673   0.0747070312  0.86274     3580.50000 0.8969       1.031261       0.103117
  83.708   0.0747070312  0.86198     3581.00000 0.8975       1.024812       0.102473
  83.792   0.0747070312  0.86135     3581.50000 0.8980       1.020512       0.102044
  83.920   0.0747070312  0.86085     3582.00000 0.8982       1.018213       0.101815
  84.085   0.0747070312  0.86050     3582.50000 0.8982       1.017714       0.101766
  84.279   0.0747070312  0.86026     3583.00000 0.8981       1.018756       0.101871
  84.494   0.0747070312  0.86013     3583.50000 0.8979       1.021034       0.102100
  84.719   0.0747070312  0.86008     3584.00000 0.8976       1.024202       0.102417
  84.945   0.0747070312  0.86008     3584.50000 0.8972       1.027884       0.102786
  85.162   0.0747070312  0.86011     3585.00000 0.8968       1.031690       0.103167
  85.360   0.0747070312  0.86014     3585.50000 0.8965       1.035229       0.103522
  85.530   0.0747070312  0.86016     3586.00000 0.8962       1.038125       0.103812
  85.661   0.0747070312  0.86016     3586.50000 0.8960       1.040036       0.104003
  85.746   0.0747070312  0.86015     3587.00000 0.8959       1.040661       0.104066
  85.775   0.0747070312  0.86014     3587.50000 0.8960       1.039760       0.103976
  85.739   0.0747070312  0.86018     3588.00000 0.8963       1.037162       0.103716
  85.630   0.0747070312  0.86031     3588.50000 0.8967       1.032765       0.103277
  85.441   0.0747070312  0.86059     3589.00000 0.8973       1.026549       0.102655
  85.164   0.0747070312  0.86107     3589.50000 0.8981       1.018568       0.101857
  84.790   0.0747070312  0.86179     3590.00000 0.8991       1.008953       0.100895
  84.314   0.0747070312  0.86275     3590.50000 0.9002       0.997907       0.099790
  83.728   0.0747070312  0.86394     3591.00000 0.9014       0.985699       0.098570
  83.026   0.0747070312  0.86533     3591.50000 0.9027       0.972662       0.097266
  82.206   0.0747070312  0.86685     3592.00000 0.9041       0.959184       0.095918
  81.263   0.0747070312  0.86846     3592.50000 0.9054       0.945702       0.094569
  80.199   0.0747070312  0.87007     3593.00000 0.9067       0.932696       0.093268
  79.015   0.0747070312  0.87164     3593.50000 0.9079       0.920677       0.092066
  77.719   0.0747070312  0.87315     3594.00000 0.9090       0.910181       0.091015
  76.323   0.0747070312  0.87456     3594.50000 0.9098       0.901748       0.090172
  74.844   0.0747070312  0.87590     3595.00000 0.9104       0.895915       0.089588
  73.303   0.0747070312  0.87720     3595.50000 0.9107       0.893193       0.089315
  71.729   0.0747070312  0.87848     3596.00000 0.9106       0.894043       0.089399
  70.154   0.0747070312  0.87979     3596.50000 0.9101       0.898865       0.089881
  68.613   0.0747070312  0.88118     3597.00000 0.9092       0.907967       0.090791
  67.139   0.0747070312  0.88267     3597.50000 0.9079       0.921553       0.092149
  65.766   0.0747070312  0.88431     3598.00000 0.9060       0.939703       0.093964
  64.520   0.0747070312  0.88609     3598.50000 0.9038       0.962367       0.096231
  63.425   0.0747070312  0.88801     3599.00000 0.9011       0.989355       0.098930
  63.432   0.0747070312  0.90669     3606.50000 0.8542       1.457559       0.145752
  64.090   0.0747070312  0.90649     3607.00000 0.8542       1.457615       0.145757
  64.792   0.0747070312  0.90627     3607.50000 0.8549       1.451331       0.145128
  65.538   0.0747070312  0.90609     3608.00000 0.8561       1.438925       0.143886
  66.328   0.0747070312  0.90601     3608.50000 0.8579       1.420754       0.142068
  67.161   0.0747070312  0.90607     3609.00000 0.8603       1.397294       0.139720
  68.036   0.0747070312  0.90632     3609.50000 0.8631       1.369111       0.136900
  68.954   0.0747070312  0.90679     3610.00000 0.8663       1.336839       0.133671
  69.913   0.0747070312  0.90746     3610.50000 0.8699       1.301167       0.130102
  70.909   0.0747070312  0.90823     3611.00000 0.8737       1.262806       0.126263
  54.713   0.0747070312  0.81227     3691.00000 0.9082       0.918133       0.091810
  55.389   0.0747070312  0.81216     3691.50000 0.9093       0.907276       0.090719
  74.149   0.0747070312  0.83604     3699.00000 0.8616       1.383877       0.138387
  74.239   0.0747070312  0.83689     3699.50000 0.8585       1.414716       0.141471
  74.164   0.0747070312  0.83746     3700.00000 0.8561       1.439272       0.143924
  73.925   0.0747070312  0.83760     3700.50000 0.8543       1.456798       0.145671
  73.526   0.0747070312  0.83717     3701.00000 0.8533       1.466727       0.146655
  46.356   0.0747070312  0.78208     3774.50000 0.8882       1.117991       0.111789
  79.219   0.0747070312  0.76722     3871.50000 0.8700       1.300247       0.130013
  78.483   0.0747070312  0.78523     3872.00000 0.8662       1.338076       0.133795
  64.416   0.0747070312  0.94890     3882.50000 0.9139       0.860862       0.086076
  65.080   0.0747070312  0.94963     3883.00000 0.9082       0.917990       0.091790
  65.788   0.0747070312  0.95026     3883.50000 0.9016       0.983757       0.098367
  66.496   0.0747070312  0.95078     3884.00000 0.8944       1.056336       0.105624
  67.177   0.0747070312  0.95116     3884.50000 0.8866       1.133760       0.113366
  67.815   0.0747070312  0.95130     3885.00000 0.8786       1.213944       0.121384
  68.403   0.0747070312  0.95107     3885.50000 0.8705       1.294698       0.129458
  68.941   0.0747070312  0.95037     3886.00000 0.8626       1.373744       0.137360
  69.431   0.0747070312  0.94911     3886.50000 0.8551       1.448723       0.144856
  69.879   0.0747070312  0.94726     3887.00000 0.8483       1.517231       0.151704
  70.288   0.0747070312  0.94490     3887.50000 0.8423       1.576864       0.157664
  78.391   0.0747070312  0.94051     3899.50000 0.9080       0.920151       0.092012
  77.913   0.0747070312  0.94069     3900.00000 0.9028       0.972336       0.097230
  77.353   0.0747070312  0.94079     3900.50000 0.8969       1.031317       0.103128
  76.736   0.0747070312  0.94077     3901.00000 0.8905       1.095437       0.109540
  76.083   0.0747070312  0.94062     3901.50000 0.8837       1.162957       0.116291
  75.409   0.0747070312  0.94028     3902.00000 0.8768       1.232048       0.123200
  74.725   0.0747070312  0.93972     3902.50000 0.8699       1.300791       0.130074
  74.039   0.0747070312  0.93890     3903.00000 0.8633       1.367183       0.136713
  90.223   0.0747070312  0.94344     3916.00000 0.9155       0.845371       0.084537
  90.966   0.0747070312  0.94240     3916.50000 0.9118       0.882442       0.088242
  91.210   0.0747070312  0.94085     3917.00000 0.9072       0.928384       0.092831
  74.084   0.0747070312  0.83856     3925.00000 0.8166       1.833963       0.183378
  70.322   0.0793457031  0.76840     3464.50000 0.8673       1.327615       0.132749
  71.329   0.0793457031  0.77621     3465.00000 0.8655       1.345194       0.134513
  91.091   0.0793457031  0.75540     3572.00000 0.8623       1.377361       0.137734
  90.448   0.0793457031  0.77445     3572.50000 0.8637       1.362984       0.136295
  89.785   0.0793457031  0.79313     3573.00000 0.8655       1.345407       0.134536
  89.110   0.0793457031  0.81407     3573.50000 0.8675       1.325182       0.132511
  85.284   0.0793457031  0.86081     3576.50000 0.8820       1.180436       0.118029
  84.750   0.0793457031  0.86040     3577.00000 0.8843       1.157188       0.115704
  84.261   0.0793457031  0.85934     3577.50000 0.8865       1.135250       0.113509
  83.821   0.0793457031  0.85790     3578.00000 0.8885       1.114880       0.111473
  83.436   0.0793457031  0.85626     3578.50000 0.8904       1.096274       0.109612
  83.110   0.0793457031  0.85454     3579.00000 0.8921       1.079569       0.107942
  82.848   0.0793457031  0.85283     3579.50000 0.8935       1.064846       0.106471
  84.783   0.0793457031  0.84096     3585.50000 0.8984       1.016311       0.101631
  85.171   0.0793457031  0.84060     3586.00000 0.8982       1.017544       0.101754
  85.529   0.0793457031  0.84036     3586.50000 0.8982       1.018440       0.101844
  85.839   0.0793457031  0.84027     3587.00000 0.8981       1.018732       0.101873
  86.082   0.0793457031  0.84035     3587.50000 0.8982       1.018174       0.101817
  86.245   0.0793457031  0.84065     3588.00000 0.8983       1.016552       0.101655
  86.310   0.0793457031  0.84118     3588.50000 0.8986       1.013688       0.101369
  86.266   0.0793457031  0.84196     3589.00000 0.8991       1.009459       0.100946
  86.100   0.0793457031  0.84299     3589.50000 0.8996       1.003796       0.100380
  85.803   0.0793457031  0.84428     3590.00000 0.9003       0.996698       0.099670
  85.367   0.0793457031  0.84583     3590.50000 0.9012       0.988231       0.098823
  84.787   0.0793457031  0.84764     3591.00000 0.9021       0.978533       0.097853
  84.059   0.0793457031  0.84972     3591.50000 0.9032       0.967821       0.096782
  83.180   0.0793457031  0.85205     3592.00000 0.9044       0.956382       0.095638
  82.152   0.0793457031  0.85461     3592.50000 0.9055       0.944580       0.094458
  80.978   0.0793457031  0.85734     3593.00000 0.9067       0.932846       0.093284
  79.664   0.0793457031  0.86018     3593.50000 0.9078       0.921676       0.092167
  78.222   0.0793457031  0.86304     3594.00000 0.9088       0.911617       0.091161
  76.667   0.0793457031  0.86584     3594.50000 0.9097       0.903255       0.090325
  75.019   0.0793457031  0.86852     3595.00000 0.9103       0.897193       0.089718
  73.305   0.0793457031  0.87102     3595.50000 0.9106       0.894032       0.089401
  71.558   0.0793457031  0.87332     3596.00000 0.9106       0.894343       0.089432
  69.813   0.0793457031  0.87545     3596.50000 0.9101       0.898639       0.089861
  68.109   0.0793457031  0.87741     3597.00000 0.9093       0.907347       0.090732
  66.487   0.0793457031  0.87925     3597.50000 0.9079       0.920785       0.092075
  64.982   0.0793457031  0.88102     3598.00000 0.9061       0.939139       0.093911
  63.627   0.0793457031  0.88276     3598.50000 0.9038       0.962448       0.096242
  62.445   0.0793457031  0.88450     3599.00000 0.9009       0.990595       0.099056
  61.450   0.0793457031  0.88625     3599.50000 0.8977       1.023299       0.102327
  60.650   0.0793457031  0.88804     3600.00000 0.8940       1.060118       0.106009
  62.099   0.0793457031  0.90086     3606.00000 0.8501       1.498771       0.149873
  62.742   0.0793457031  0.90037     3606.50000 0.8495       1.505110       0.150506
  63.428   0.0793457031  0.89965     3607.00000 0.8496       1.503865       0.150380
  64.158   0.0793457031  0.89873     3607.50000 0.8505       1.495130       0.149505
  64.930   0.0793457031  0.89767     3608.00000 0.8521       1.479214       0.147912
  65.746   0.0793457031  0.89652     3608.50000 0.8544       1.456609       0.145650
  66.607   0.0793457031  0.89535     3609.00000 0.8572       1.427957       0.142783
  67.515   0.0793457031  0.89420     3609.50000 0.8606       1.394016       0.139386
  68.472   0.0793457031  0.89317     3610.00000 0.8645       1.355613       0.135543
  55.350   0.0793457031  0.75582     3690.50000 0.9054       0.945783       0.094577
  55.576   0.0793457031  0.75727     3691.00000 0.9076       0.924013       0.092396
  56.239   0.0793457031  0.76046     3691.50000 0.9089       0.910749       0.091065
  73.120   0.0793457031  0.79785     3699.00000 0.8611       1.389386       0.138938
  73.115   0.0793457031  0.79762     3699.50000 0.8579       1.420856       0.142085
  72.961   0.0793457031  0.79731     3700.00000 0.8554       1.446498       0.144646
  72.662   0.0793457031  0.79701     3700.50000 0.8534       1.465735       0.146563
  78.382   0.0793457031  0.76687     3872.00000 0.8654       1.345762       0.134569
  77.507   0.0793457031  0.78703     3872.50000 0.8625       1.375088       0.137501
  64.660   0.0793457031  0.93787     3883.00000 0.9093       0.907407       0.090732
  65.322   0.0793457031  0.93809     3883.50000 0.9021       0.979102       0.097902
  65.983   0.0793457031  0.93820     3884.00000 0.8941       1.058616       0.105853
  66.619   0.0793457031  0.93825     3884.50000 0.8856       1.143864       0.114377
  67.219   0.0793457031  0.93829     3885.00000 0.8767       1.232603       0.123250
  67.778   0.0793457031  0.93831     3885.50000 0.8678       1.322434       0.132231
  68.299   0.0793457031  0.93831     3886.00000 0.8589       1.410803       0.141065
  68.788   0.0793457031  0.93821     3886.50000 0.8505       1.495016       0.149483
  69.249   0.0793457031  0.93792     3887.00000 0.8428       1.572264       0.157203
  79.506   0.0793457031  0.93852     3900.00000 0.9058       0.941674       0.094166
  78.811   0.0793457031  0.93848     3900.50000 0.8997       1.003182       0.100316
  78.069   0.0793457031  0.93839     3901.00000 0.8930       1.069525       0.106950
  77.300   0.0793457031  0.93821     3901.50000 0.8861       1.138880       0.113886
  76.519   0.0793457031  0.93793     3902.00000 0.8791       1.209373       0.120935
  75.735   0.0793457031  0.93748     3902.50000 0.8721       1.279084       0.127906
  87.928   0.0793457031  0.93757     3916.00000 0.9116       0.884155       0.088415
  88.919   0.0793457031  0.93623     3916.50000 0.9078       0.922170       0.092212
  89.448   0.0793457031  0.93443     3917.00000 0.9031       0.969271       0.096915
  93.076   0.0839843750  0.75503     3571.50000 0.8575       1.424550       0.142453
  92.308   0.0839843750  0.77612     3572.00000 0.8586       1.414217       0.141417
  84.799   0.0839843750  0.81721     3586.00000 0.9009       0.991384       0.099138
  85.508   0.0839843750  0.81650     3586.50000 0.9009       0.990507       0.099051
  86.169   0.0839843750  0.81626     3587.00000 0.9010       0.990182       0.099018
  86.746   0.0839843750  0.81654     3587.50000 0.9010       0.990158       0.099016
  87.208   0.0839843750  0.81735     3588.00000 0.9010       0.990140       0.099014
  87.529   0.0839843750  0.81867     3588.50000 0.9010       0.989813       0.098981
  87.687   0.0839843750  0.82045     3589.00000 0.9011       0.988865       0.098886
  87.665   0.0839843750  0.82258     3589.50000 0.9013       0.987016       0.098702
  87.454   0.0839843750  0.82499     3590.00000 0.9016       0.984035       0.098403
  87.045   0.0839843750  0.82756     3590.50000 0.9020       0.979760       0.097976
  86.439   0.0839843750  0.83020     3591.00000 0.9026       0.974111       0.097411
  85.637   0.0839843750  0.83286     3591.50000 0.9033       0.967103       0.096710
  84.645   0.0839843750  0.83550     3592.00000 0.9041       0.958846       0.095884
  83.471   0.0839843750  0.83816     3592.50000 0.9050       0.949561       0.094956
  82.127   0.0839843750  0.84089     3593.00000 0.9060       0.939579       0.093958
  80.624   0.0839843750  0.84375     3593.50000 0.9071       0.929336       0.092934
  78.981   0.0839843750  0.84680     3594.00000 0.9081       0.919376       0.091938
  77.216   0.0839843750  0.85005     3594.50000 0.9090       0.910329       0.091033
  75.354   0.0839843750  0.85342     3595.00000 0.9097       0.902897       0.090290
  73.424   0.0839843750  0.85682     3595.50000 0.9102       0.897824       0.089782
  71.460   0.0839843750  0.86011     3596.00000 0.9104       0.895860       0.089586
  69.503   0.0839843750  0.86316     3596.50000 0.9102       0.897726       0.089772
  67.596   0.0839843750  0.86589     3597.00000 0.9096       0.904069       0.090406
  65.784   0.0839843750  0.86825     3597.50000 0.9085       0.915426       0.091541
  64.109   0.0839843750  0.87024     3598.00000 0.9068       0.932190       0.093218
  62.608   0.0839843750  0.87191     3598.50000 0.9045       0.954589       0.095458
  61.309   0.0839843750  0.87333     3599.00000 0.9017       0.982669       0.098266
  60.231   0.0839843750  0.87456     3599.50000 0.8984       1.016277       0.101626
  59.380   0.0839843750  0.87567     3600.00000 0.8945       1.055065       0.105505
  58.752   0.0839843750  0.87673     3600.50000 0.8902       1.098487       0.109847
  58.336   0.0839843750  0.87778     3601.00000 0.8854       1.145797       0.114578
  58.113   0.0839843750  0.87883     3601.50000 0.8804       1.196058       0.119605
  59.656   0.0839843750  0.88407     3604.50000 0.8512       1.487617       0.148758
  60.220   0.0839843750  0.88449     3605.00000 0.8479       1.520878       0.152084
  60.837   0.0839843750  0.88470     3605.50000 0.8454       1.546092       0.154604
  61.499   0.0839843750  0.88469     3606.00000 0.8438       1.562316       0.156225
  62.201   0.0839843750  0.88445     3606.50000 0.8431       1.568953       0.156888
  62.940   0.0839843750  0.88395     3607.00000 0.8434       1.565798       0.156571
  63.713   0.0839843750  0.88320     3607.50000 0.8447       1.553050       0.155294
  64.520   0.0839843750  0.88221     3608.00000 0.8469       1.531287       0.153116
  65.363   0.0839843750  0.88099     3608.50000 0.8499       1.501404       0.150126
  78.103   0.0839843750  0.76932     3872.00000 0.8624       1.376362       0.137634
  76.951   0.0839843750  0.78943     3872.50000 0.8590       1.410133       0.141010
  64.436   0.0839843750  0.92224     3883.00000 0.9114       0.886560       0.088650
  64.959   0.0839843750  0.92214     3883.50000 0.9034       0.965761       0.096570
  65.485   0.0839843750  0.92177     3884.00000 0.8946       1.054442       0.105438
  65.996   0.0839843750  0.92118     3884.50000 0.8850       1.150509       0.115044
  66.488   0.0839843750  0.92043     3885.00000 0.8748       1.251666       0.125158
  66.960   0.0839843750  0.91960     3885.50000 0.8645       1.355367       0.135526
  67.419   0.0839843750  0.91876     3886.00000 0.8541       1.458780       0.145864
  67.873   0.0839843750  0.91800     3886.50000 0.8441       1.558745       0.155855
  80.236   0.0839843750  0.93015     3900.50000 0.9019       0.980943       0.098093
  79.354   0.0839843750  0.93018     3901.00000 0.8948       1.051996       0.105199
  78.468   0.0839843750  0.93024     3901.50000 0.8875       1.125038       0.112503
  77.586   0.0839843750  0.93034     3902.00000 0.8802       1.198137       0.119813
  76.711   0.0839843750  0.93044     3902.50000 0.8731       1.269392       0.126938
  86.238   0.0839843750  0.92220     3916.00000 0.9093       0.906987       0.090696
  87.514   0.0839843750  0.92061     3916.50000 0.9055       0.945186       0.094510
  86.735   0.0886230469  0.79011     3587.00000 0.9046       0.953591       0.095358
  87.796   0.0886230469  0.79073     3587.50000 0.9045       0.954607       0.095459
  88.680   0.0886230469  0.79215     3588.00000 0.9043       0.957227       0.095721
  89.341   0.0886230469  0.79431     3588.50000 0.9039       0.960852       0.096084
  89.746   0.0886230469  0.79715     3589.00000 0.9035       0.964850       0.096485
  89.875   0.0886230469  0.80056     3589.50000 0.9031       0.968618       0.096862
  89.721   0.0886230469  0.80443     3590.00000 0.9028       0.971617       0.097162
  89.286   0.0886230469  0.80863     3590.50000 0.9027       0.973398       0.097339
  77.801   0.0886230469  0.83296     3594.50000 0.9073       0.927007       0.092700
  75.711   0.0886230469  0.83381     3595.00000 0.9083       0.917094       0.091709
  73.558   0.0886230469  0.83475     3595.50000 0.9092       0.908442       0.090844
  71.375   0.0886230469  0.83603     3596.00000 0.9098       0.902059       0.090206
  69.198   0.0886230469  0.83771     3596.50000 0.9101       0.898990       0.089899
  67.073   0.0886230469  0.83970     3597.00000 0.9100       0.900243       0.090024
  65.047   0.0886230469  0.84178     3597.50000 0.9093       0.906725       0.090672
  63.171   0.0886230469  0.84371     3598.00000 0.9081       0.919186       0.091918
  61.490   0.0886230469  0.84532     3598.50000 0.9062       0.938178       0.093817
  60.042   0.0886230469  0.84655     3599.00000 0.9036       0.964021       0.096402
  58.852   0.0886230469  0.84738     3599.50000 0.9003       0.996803       0.099680
  57.931   0.0886230469  0.84790     3600.00000 0.8964       1.036370       0.103637
  57.274   0.0886230469  0.84821     3600.50000 0.8918       1.082327       0.108232
  56.869   0.0886230469  0.84841     3601.00000 0.8866       1.134040       0.113403
  56.691   0.0886230469  0.84859     3601.50000 0.8809       1.190627       0.119062
  56.713   0.0886230469  0.84881     3602.00000 0.8749       1.250950       0.125094
  56.908   0.0886230469  0.84909     3602.50000 0.8686       1.313607       0.131359
  57.246   0.0886230469  0.84943     3603.00000 0.8623       1.376919       0.137690
  57.703   0.0886230469  0.84979     3603.50000 0.8561       1.438936       0.143891
  58.256   0.0886230469  0.85013     3604.00000 0.8503       1.497459       0.149742
  58.886   0.0886230469  0.85042     3604.50000 0.8450       1.550106       0.155006
  59.576   0.0886230469  0.85064     3605.00000 0.8406       1.594439       0.159438
  60.314   0.0886230469  0.85078     3605.50000 0.8372       1.628149       0.162807
  61.087   0.0886230469  0.85083     3606.00000 0.8351       1.649308       0.164922
  61.888   0.0886230469  0.85080     3606.50000 0.8343       1.656632       0.165652
  79.341   0.0886230469  0.76467     3871.50000 0.8618       1.381785       0.138179
  77.568   0.0886230469  0.78497     3872.00000 0.8563       1.436902       0.143690
  75.934   0.0886230469  0.80293     3872.50000 0.8522       1.478325       0.147832
  64.587   0.0886230469  0.90124     3883.00000 0.9144       0.855725       0.085569
  64.816   0.0886230469  0.90108     3883.50000 0.9058       0.942232       0.094220
  65.068   0.0886230469  0.90054     3884.00000 0.8960       1.040322       0.104029
  65.336   0.0886230469  0.89965     3884.50000 0.8852       1.148180       0.114814
  65.619   0.0886230469  0.89847     3885.00000 0.8736       1.263806       0.126375
  65.922   0.0886230469  0.89710     3885.50000 0.8615       1.384897       0.138482
  66.258   0.0886230469  0.89571     3886.00000 0.8491       1.508695       0.150857
  66.638   0.0886230469  0.89450     3886.50000 0.8368       1.631807       0.163161
  80.484   0.0886230469  0.91743     3901.00000 0.8950       1.050439       0.105044
  79.508   0.0886230469  0.91786     3901.50000 0.8872       1.128288       0.112828
  78.557   0.0886230469  0.91842     3902.00000 0.8796       1.203960       0.120396
  77.624   0.0886230469  0.91911     3902.50000 0.8724       1.275704       0.127570
  85.066   0.0886230469  0.89431     3916.00000 0.9087       0.913074       0.091302
  86.693   0.0886230469  0.89224     3916.50000 0.9051       0.949405       0.094927
  89.336   0.0932617188  0.76442     3587.50000 0.9088       0.911987       0.091194
  90.774   0.0932617188  0.76649     3588.00000 0.9081       0.919038       0.091900
  91.848   0.0932617188  0.76941     3588.50000 0.9072       0.928493       0.092847
  92.514   0.0932617188  0.77310     3589.00000 0.9061       0.939206       0.093920
  92.757   0.0932617188  0.77742     3589.50000 0.9050       0.950153       0.095015
  92.582   0.0932617188  0.78230     3590.00000 0.9040       0.960489       0.096049
  75.977   0.0932617188  0.81544     3595.00000 0.9057       0.942858       0.094284
  73.644   0.0932617188  0.81065     3595.50000 0.9071       0.929253       0.092924
  71.284   0.0932617188  0.80520     3596.00000 0.9084       0.916281       0.091628
  68.920   0.0932617188  0.80015     3596.50000 0.9095       0.905457       0.090545
  66.589   0.0932617188  0.79639     3597.00000 0.9102       0.898358       0.089836
  64.341   0.0932617188  0.79436     3597.50000 0.9104       0.896491       0.089649
  62.234   0.0932617188  0.79391     3598.00000 0.9099       0.901178       0.090118
  60.327   0.0932617188  0.79449     3598.50000 0.9087       0.913464       0.091346
  58.678   0.0932617188  0.79543     3599.00000 0.9066       0.934082       0.093408
  57.326   0.0932617188  0.79626     3599.50000 0.9037       0.963445       0.096345
  56.294   0.0932617188  0.79673     3600.00000 0.8998       1.001671       0.100167
  55.583   0.0932617188  0.79682     3600.50000 0.8951       1.048611       0.104861
  55.177   0.0932617188  0.79660     3601.00000 0.8896       1.103867       0.110386
  55.048   0.0932617188  0.79620     3601.50000 0.8833       1.166801       0.116680
  55.161   0.0932617188  0.79577     3602.00000 0.8764       1.236508       0.123650
  55.478   0.0932617188  0.79541     3602.50000 0.8688       1.311759       0.131174
  55.965   0.0932617188  0.79518     3603.00000 0.8609       1.390907       0.139088
  56.589   0.0932617188  0.79506     3603.50000 0.8528       1.471754       0.147171
  57.323   0.0932617188  0.79503     3604.00000 0.8449       1.551397       0.155134
  58.141   0.0932617188  0.79501     3604.50000 0.8374       1.626113       0.162603
  59.022   0.0932617188  0.79495     3605.00000 0.8309       1.691397       0.169129
  59.947   0.0932617188  0.79485     3605.50000 0.8258       1.742277       0.174215
  60.897   0.0932617188  0.79471     3606.00000 0.8226       1.774024       0.177388
  57.295   0.0932617188  0.75108     3688.50000 0.8883       1.116958       0.111688
  79.478   0.0932617188  0.76774     3871.50000 0.8533       1.467376       0.146732
  76.803   0.0932617188  0.78640     3872.00000 0.8461       1.539554       0.153950
  74.350   0.0932617188  0.80212     3872.50000 0.8405       1.594683       0.159465
  72.274   0.0932617188  0.81469     3873.00000 0.8373       1.627200       0.162720
  65.285   0.0932617188  0.87294     3883.00000 0.9181       0.819171       0.081916
  65.006   0.0932617188  0.87282     3883.50000 0.9089       0.910869       0.091086
  64.798   0.0932617188  0.87229     3884.00000 0.8984       1.016091       0.101608
  64.659   0.0932617188  0.87141     3884.50000 0.8866       1.133646       0.113364
  64.597   0.0932617188  0.87030     3885.00000 0.8738       1.262371       0.126235
  64.621   0.0932617188  0.86912     3885.50000 0.8599       1.400964       0.140093
  80.341   0.0932617188  0.89896     3901.50000 0.8844       1.156199       0.115620
  79.380   0.0932617188  0.89941     3902.00000 0.8767       1.232651       0.123265
  78.443   0.0932617188  0.89997     3902.50000 0.8698       1.301654       0.130165
  77.514   0.0932617188  0.90065     3903.00000 0.8638       1.362285       0.136229
  81.841   0.0932617188  0.85218     3915.50000 0.9117       0.883311       0.088328
  84.421   0.0932617188  0.85019     3916.00000 0.9101       0.899340       0.089925
  96.331   0.0979003906  0.75244     3589.50000 0.9065       0.935477       0.093548
  73.683   0.0979003906  0.79538     3595.50000 0.9037       0.963085       0.096306
  71.238   0.0979003906  0.78272     3596.00000 0.9058       0.941859       0.094184
  68.757   0.0979003906  0.76725     3596.50000 0.9080       0.920464       0.092045
  66.257   0.0979003906  0.75095     3597.00000 0.9099       0.901389       0.090138
  61.387   0.0979003906  0.75024     3687.00000 0.8526       1.474211       0.147403
  59.222   0.0979003906  0.77510     3687.50000 0.8669       1.330773       0.133060
  57.131   0.0979003906  0.79085     3688.00000 0.8801       1.198708       0.119857
  55.281   0.0979003906  0.79575     3688.50000 0.8919       1.080966       0.108087
  53.885   0.0979003906  0.79156     3689.00000 0.9021       0.979107       0.097905
  53.183   0.0979003906  0.78086     3689.50000 0.9106       0.893895       0.089387
  53.402   0.0979003906  0.76547     3690.00000 0.9174       0.825871       0.082587
  69.109   0.0979003906  0.80628     3873.00000 0.8173       1.826955       0.182686
  67.025   0.0979003906  0.81215     3873.50000 0.8173       1.826579       0.182658
  66.702   0.0979003906  0.82696     3883.00000 0.9215       0.785064       0.078506
  65.667   0.0979003906  0.82679     3883.50000 0.9121       0.878548       0.087855
  64.769   0.0979003906  0.82632     3884.00000 0.9013       0.986521       0.098652
  64.017   0.0979003906  0.82570     3884.50000 0.8891       1.108573       0.110857
  63.424   0.0979003906  0.82518     3885.00000 0.8755       1.244786       0.124479
  80.910   0.0979003906  0.85970     3901.50000 0.8784       1.216165       0.121616
  80.013   0.0979003906  0.85967     3902.00000 0.8711       1.288765       0.128877
  79.142   0.0979003906  0.85978     3902.50000 0.8651       1.348757       0.134876
  78.264   0.0979003906  0.86005     3903.00000 0.8603       1.396824       0.139682
  77.360   0.0979003906  0.86055     3903.50000 0.8566       1.433599       0.143360
  81.062   0.0979003906  0.78652     3915.50000 0.9140       0.859898       0.085984
  73.751   0.1025390625  0.77924     3595.50000 0.8988       1.012304       0.101226
  71.358   0.1025390625  0.77069     3596.00000 0.9018       0.982372       0.098234
  68.860   0.1025390625  0.75318     3596.50000 0.9052       0.947874       0.094785
  50.217   0.1025390625  0.82083     3689.00000 0.9095       0.905296       0.090522
  49.530   0.1025390625  0.81483     3689.50000 0.9189       0.810683       0.081064
  50.270   0.1025390625  0.80034     3690.00000 0.9264       0.735649       0.073563
  52.737   0.1025390625  0.78037     3690.50000 0.9319       0.681230       0.068122
  56.938   0.1025390625  0.75662     3691.00000 0.9350       0.650117       0.065012
  62.351   0.1025390625  0.78582     3873.50000 0.7892       2.107975       0.210795
  61.515   0.1025390625  0.78476     3874.00000 0.7990       2.010494       0.201031
  81.190   0.1025390625  0.75327     3901.50000 0.8686       1.314358       0.131436
  80.450   0.1025390625  0.75306     3902.00000 0.8626       1.373754       0.137375
  79.721   0.1025390625  0.75295     3902.50000 0.8586       1.414243       0.141424
  78.960   0.1025390625  0.75307     3903.00000 0.8560       1.439797       0.143980
  78.139   0.1025390625  0.75356     3903.50000 0.8547       1.453365       0.145336
  77.241   0.1025390625  0.75454     3904.00000 0.8543       1.456643       0.145664
  76.258   0.1025390625  0.75609     3904.50000 0.8550       1.450276       0.145027
  48.822   0.1071777344  0.76387     3690.50000 0.9424       0.575631       0.057560
 -62.048   0.1953125000  0.87513      825.50000 0.3866       6.134530       0.613450
 -61.714   0.1999511719  0.87505      825.50000 0.3505       6.494532       0.649453
 -86.067   0.2231445312  0.77431     1225.00000 0.8747       1.253474       0.125344
 -74.187   0.2231445312  0.77783     3810.00000 0.8887       1.112880       0.111284
 -86.076   0.2277832031  0.81078     1225.00000 0.8773       1.227079       0.122704
 -85.471   0.2277832031  0.76668     1225.50000 0.8951       1.049466       0.104944
 -84.094   0.2277832031  0.76342     1226.00000 0.9094       0.906236       0.090621
 -81.919   0.2277832031  0.76101     1226.50000 0.9205       0.794713       0.079469
 -79.181   0.2277832031  0.75695     1227.00000 0.9294       0.706088       0.070604
-124.265   0.2277832031  0.75608     1942.00000 0.8793       1.207566       0.120741
 -73.946   0.2277832031  0.76029     3810.00000 0.8859       1.141246       0.114121
 -86.096   0.2324218750  0.83508     1225.00000 0.8798       1.201679       0.120165
 -85.621   0.2324218750  0.82546     1225.50000 0.8972       1.028019       0.102800
 -84.421   0.2324218750  0.83317     1226.00000 0.9111       0.888808       0.088879
 -82.476   0.2324218750  0.83488     1226.50000 0.9219       0.781056       0.078103
 -80.018   0.2324218750  0.82517     1227.00000 0.9305       0.695534       0.069549
 -86.125   0.2370605469  0.88629     1225.00000 0.8823       1.177305       0.117727
 -85.768   0.2370605469  0.89516     1225.50000 0.8993       1.007212       0.100719
 -84.725   0.2370605469  0.89848     1226.00000 0.9128       0.871672       0.087165
 -82.983   0.2370605469  0.89713     1226.50000 0.9233       0.767428       0.076740
 -80.777   0.2370605469  0.89407     1227.00000 0.9315       0.684875       0.068483
-124.745   0.2370605469  0.75010     1942.00000 0.8857       1.142815       0.114272
-112.431   0.2370605469  0.80071     3714.50000 0.8844       1.156055       0.115602
 -73.417   0.2370605469  0.81717     3810.00000 0.8796       1.203722       0.120369
 -85.912   0.2416992188  0.90579     1225.50000 0.9013       0.987146       0.098713
 -85.007   0.2416992188  0.89592     1226.00000 0.9145       0.854979       0.085496
 -83.444   0.2416992188  0.89507     1226.50000 0.9246       0.754001       0.075397
 -81.465   0.2416992188  0.88974     1227.00000 0.9326       0.674259       0.067421
-112.221   0.2416992188  0.80034     3714.50000 0.8886       1.114088       0.111405
 -73.133   0.2416992188  0.79123     3810.00000 0.8762       1.237767       0.123773
 -86.052   0.2463378906  0.91053     1225.50000 0.9032       0.967892       0.096787
 -85.268   0.2463378906  0.88558     1226.00000 0.9161       0.838849       0.083883
 -83.864   0.2463378906  0.88345     1226.50000 0.9259       0.740910       0.074088
 -82.087   0.2463378906  0.87523     1227.00000 0.9336       0.663808       0.066377
 -80.251   0.2463378906  0.84702     1227.50000 0.9405       0.595507       0.059543
-112.025   0.2463378906  0.80091     3714.50000 0.8927       1.073025       0.107299
 -72.836   0.2463378906  0.75859     3810.00000 0.8726       1.273615       0.127358
 -86.190   0.2509765625  0.94448     1225.50000 0.9051       0.949500       0.094948
 -85.511   0.2509765625  0.91556     1226.00000 0.9177       0.823369       0.082335
 -84.244   0.2509765625  0.87283     1226.50000 0.9272       0.728261       0.072824
 -82.649   0.2509765625  0.86706     1227.00000 0.9346       0.653618       0.065358
 -81.052   0.2509765625  0.85514     1227.50000 0.9413       0.587063       0.058699
-111.844   0.2509765625  0.84815     3714.50000 0.8967       1.033140       0.103311
-109.161   0.2509765625  0.79414     3715.00000 0.8922       1.077998       0.107798
 -85.735   0.2556152344  0.91461     1226.00000 0.9191       0.808603       0.080859
 -84.588   0.2556152344  0.86682     1226.50000 0.9284       0.716134       0.071611
 -83.153   0.2556152344  0.85889     1227.00000 0.9356       0.643770       0.064373
 -81.778   0.2556152344  0.84421     1227.50000 0.9421       0.578796       0.057873
-103.159   0.2556152344  0.75417     2252.50000 0.8969       1.030656       0.103062
-111.680   0.2556152344  0.84345     3714.50000 0.9005       0.994653       0.099462
-108.952   0.2556152344  0.80120     3715.00000 0.8949       1.050617       0.105060
 -85.943   0.2602539062  0.91134     1226.00000 0.9205       0.794594       0.079458
 -84.897   0.2602539062  0.86118     1226.50000 0.9295       0.704591       0.070457
 -83.604   0.2602539062  0.85159     1227.00000 0.9366       0.634326       0.063429
 -82.432   0.2602539062  0.83471     1227.50000 0.9429       0.570754       0.057069
-103.724   0.2602539062  0.76240     2252.50000 0.8978       1.021968       0.102194
-111.533   0.2602539062  0.83530     3714.50000 0.9042       0.957730       0.095770
-108.758   0.2602539062  0.81493     3715.00000 0.8975       1.024619       0.102460
 -86.134   0.2648925781  0.94650     1226.00000 0.9219       0.781370       0.078136
 -85.174   0.2648925781  0.90184     1226.50000 0.9306       0.693675       0.069366
 -84.006   0.2648925781  0.84707     1227.00000 0.9375       0.625334       0.062530
 -83.018   0.2648925781  0.83540     1227.50000 0.9437       0.562975       0.056292
 -98.829   0.2648925781  0.76685     2252.00000 0.8935       1.065160       0.106515
-104.296   0.2648925781  0.79677     2252.50000 0.8986       1.014362       0.101434
-108.664   0.2648925781  0.82273     2253.00000 0.9035       0.964603       0.096455
-111.406   0.2648925781  0.83699     3714.50000 0.9078       0.922494       0.092246
-108.580   0.2648925781  0.84375     3715.00000 0.9000       1.000066       0.100005
 -85.421   0.2695312500  0.89523     1226.50000 0.9317       0.683418       0.068340
 -84.360   0.2695312500  0.84109     1227.00000 0.9383       0.616834       0.061680
 -83.540   0.2695312500  0.82887     1227.50000 0.9445       0.555494       0.055544
-117.753   0.2695312500  0.75803     2017.00000 0.9556       0.443644       0.044359
 -99.100   0.2695312500  0.77583     2252.00000 0.8934       1.065677       0.106567
-104.872   0.2695312500  0.80208     2252.50000 0.8992       1.007753       0.100773
-109.565   0.2695312500  0.82232     2253.00000 0.9049       0.951190       0.095114
-111.298   0.2695312500  0.81650     3714.50000 0.9111       0.889020       0.088899
-108.418   0.2695312500  0.83172     3715.00000 0.9023       0.976992       0.097698
 -85.639   0.2741699219  0.88747     1226.50000 0.9326       0.673834       0.067382
 -84.670   0.2741699219  0.83504     1227.00000 0.9391       0.608855       0.060883
 -84.003   0.2741699219  0.82283     1227.50000 0.9452       0.548340       0.054829
-118.383   0.2741699219  0.76063     2017.00000 0.9560       0.440506       0.044045
 -99.355   0.2741699219  0.78242     2252.00000 0.8933       1.067344       0.106734
-105.451   0.2741699219  0.80693     2252.50000 0.8998       1.002059       0.100204
-110.499   0.2741699219  0.82107     2253.00000 0.9061       0.938582       0.093853
-111.210   0.2741699219  0.78094     3714.50000 0.9143       0.857350       0.085732
-108.273   0.2741699219  0.80056     3715.00000 0.9045       0.955410       0.095540
 -85.830   0.2788085938  0.87889     1226.50000 0.9335       0.664934       0.066492
 -84.939   0.2788085938  0.82907     1227.00000 0.9399       0.601416       0.060139
 -84.409   0.2788085938  0.81731     1227.50000 0.9459       0.541536       0.054149
-118.998   0.2788085938  0.75760     2017.00000 0.9562       0.438458       0.043840
 -99.592   0.2788085938  0.78526     2252.00000 0.8930       1.070057       0.107005
-106.030   0.2788085938  0.81116     2252.50000 0.9003       0.997202       0.099719
-111.464   0.2788085938  0.81899     2253.00000 0.9073       0.926745       0.092670
 -85.996   0.2834472656  0.91455     1226.50000 0.9343       0.656715       0.065670
 -85.169   0.2834472656  0.86440     1227.00000 0.9405       0.594532       0.059451
 -84.762   0.2834472656  0.81544     1227.50000 0.9465       0.535103       0.053506
-119.595   0.2834472656  0.76735     2017.00000 0.9563       0.437418       0.043736
 -93.710   0.2834472656  0.77134     2251.50000 0.8860       1.139567       0.113956
 -99.811   0.2834472656  0.81178     2252.00000 0.8926       1.073718       0.107372
-106.607   0.2834472656  0.83238     2252.50000 0.9007       0.993110       0.099310
-112.458   0.2834472656  0.85021     2253.00000 0.9084       0.915653       0.091561
 -76.727   0.2834472656  0.76921     3881.00000 0.7178       2.821889       0.282185
 -85.363   0.2880859375  0.85497     1227.00000 0.9412       0.588211       0.058819
 -85.065   0.2880859375  0.81049     1227.50000 0.9471       0.529059       0.052902
-120.171   0.2880859375  0.75946     2017.00000 0.9563       0.437309       0.043725
 -93.684   0.2880859375  0.76504     2251.50000 0.8850       1.150476       0.115047
-100.011   0.2880859375  0.81546     2252.00000 0.8922       1.078228       0.107823
-107.182   0.2880859375  0.83199     2252.50000 0.9010       0.989710       0.098970
-113.478   0.2880859375  0.84541     2253.00000 0.9095       0.905284       0.090524
 -76.412   0.2880859375  0.77061     3881.00000 0.7235       2.764710       0.276466
 -85.523   0.2927246094  0.84536     1227.00000 0.9418       0.582453       0.058243
 -85.321   0.2927246094  0.80593     1227.50000 0.9477       0.523416       0.052338
 -86.119   0.2927246094  0.79812     1228.00000 0.9541       0.458726       0.045866
-120.725   0.2927246094  0.75106     2017.00000 0.9562       0.438054       0.043800
  66.019   0.2927246094  0.76749     2020.00000 0.9642       0.357802       0.035780
 -93.638   0.2927246094  0.75572     2251.50000 0.8838       1.162307       0.116230
-100.193   0.2927246094  0.81706     2252.00000 0.8917       1.083490       0.108349
-107.751   0.2927246094  0.83078     2252.50000 0.9013       0.986935       0.098693
-114.521   0.2927246094  0.83965     2253.00000 0.9104       0.895622       0.089558
 -76.104   0.2927246094  0.76981     3881.00000 0.7295       2.705547       0.270549
 -85.653   0.2973632812  0.83573     1227.00000 0.9423       0.577257       0.057724
 -85.533   0.2973632812  0.80174     1227.50000 0.9482       0.518186       0.051815
 -86.517   0.2973632812  0.79571     1228.00000 0.9548       0.452513       0.045245
  66.432   0.2973632812  0.75794     2020.00000 0.9633       0.367406       0.036740
-100.356   0.2973632812  0.81554     2252.00000 0.8911       1.089414       0.108941
-108.315   0.2973632812  0.82871     2252.50000 0.9015       0.984721       0.098472
-115.585   0.2973632812  0.83295     2253.00000 0.9113       0.886651       0.088662
 -85.755   0.3020019531  0.87330     1227.00000 0.9427       0.572615       0.057260
 -85.705   0.3020019531  0.82650     1227.50000 0.9487       0.513376       0.051334
 -86.862   0.3020019531  0.79735     1228.00000 0.9554       0.446511       0.044645
 -93.486   0.3020019531  0.80010     2251.50000 0.8812       1.188327       0.118831
-100.500   0.3020019531  0.81645     2252.00000 0.8904       1.095907       0.109591
-108.870   0.3020019531  0.83326     2252.50000 0.9017       0.983006       0.098300
-116.667   0.3020019531  0.85134     2253.00000 0.9122       0.878356       0.087833
 -79.857   0.3020019531  0.78569     3880.50000 0.7762       2.238020       0.223794
 -85.839   0.3066406250  0.81765     1227.50000 0.9491       0.508992       0.050896
 -87.156   0.3066406250  0.79481     1228.00000 0.9559       0.440737       0.044068
 -93.384   0.3066406250  0.78840     2251.50000 0.8798       1.202320       0.120230
-109.417   0.3066406250  0.82597     2252.50000 0.9018       0.981735       0.098173
-117.763   0.3066406250  0.84201     2253.00000 0.9129       0.870726       0.087070
 -79.771   0.3066406250  0.78551     3880.50000 0.7789       2.211130       0.221105
 -85.939   0.3112792969  0.80894     1227.50000 0.9495       0.505035       0.050501
 -87.404   0.3112792969  0.79220     1228.00000 0.9565       0.435203       0.043516
  67.066   0.3112792969  0.75894     1716.00000 0.4714       5.286768       0.528613
-109.955   0.3112792969  0.81776     2252.50000 0.9019       0.980856       0.098086
-118.871   0.3112792969  0.83180     2253.00000 0.9136       0.863749       0.086373
 -79.692   0.3112792969  0.78457     3880.50000 0.7815       2.184993       0.218492
 -86.006   0.3159179688  0.80039     1227.50000 0.9499       0.501508       0.050148
 -87.607   0.3159179688  0.78936     1228.00000 0.9570       0.429925       0.042988
  67.217   0.3159179688  0.77074     1716.00000 0.4507       5.493303       0.549273
-119.986   0.3159179688  0.82079     2253.00000 0.9143       0.857412       0.085739
 -79.621   0.3159179688  0.78285     3880.50000 0.7840       2.159794       0.215973
 -86.045   0.3205566406  0.79201     1227.50000 0.9502       0.498407       0.049838
