  14.258   0.4875488281  0.83494      594.50000 0.5158       4.841879       0.484183
  37.619   0.4875488281  0.75915      868.00000 0.8276       1.724356       0.172436
  59.917   0.4875488281  0.75402     2162.00000 0.9057       0.942723       0.094272
 175.094   0.4875488281  0.77206     3801.00000 0.9761       0.238581       0.023857
-173.479   0.4875488281  0.93304     3801.50000 0.9854       0.145763       0.014575
-171.721   0.4921875000  0.94633      168.00000 0.8675      75.487076       7.548698
   8.710   0.4921875000  0.82727      171.00000 0.9659     293.086578      29.305437
  12.690   0.4921875000  0.99122      231.00000 0.7230      36.102741       3.610058
-166.714   0.4921875000  0.99620      253.50000 0.5981      24.879379       2.487904
-166.435   0.4921875000  0.99438      271.50000 0.6675      30.082478       3.007845
-165.667   0.4921875000  0.93927      333.00000 0.5866      24.190262       2.419005
-163.538   0.4921875000  0.85937      345.00000 0.3998      16.662586       1.666220
-162.682   0.4921875000  0.98599      384.00000 0.5376      21.626194       2.162582
-161.190   0.4921875000  0.90268      477.00000 0.5814      23.886738       2.388669
  14.391   0.4921875000  0.83726      594.50000 0.5052       4.947698       0.494764
  37.493   0.4921875000  0.76328      868.00000 0.8241       1.759469       0.175947
  59.925   0.4921875000  0.75256     2162.00000 0.9056       0.943902       0.094390
 174.784   0.4921875000  0.76837     3801.00000 0.9761       0.238872       0.023886
-173.061   0.4921875000  0.92892     3801.50000 0.9857       0.142892       0.014288
-171.720   0.4968261719  0.92880      168.00000 0.8701      76.991814       7.699177
   8.715   0.4968261719  0.82811      171.00000 0.9677     309.251068      30.922779
  12.690   0.4968261719  0.99055      231.00000 0.7302      37.070641       3.706855
-166.712   0.4968261719  0.99603      253.50000 0.6069      25.438587       2.543823
-166.426   0.4968261719  0.99429      271.50000 0.6749      30.761644       3.075745
-162.671   0.4968261719  0.98595      384.00000 0.5471      22.079628       2.207922
-161.168   0.4968261719  0.90225      477.00000 0.5913      24.469349       2.446929
  14.519   0.4968261719  0.83949      594.50000 0.4945       5.054746       0.505468
  37.370   0.4968261719  0.76691      868.00000 0.8205       1.795184       0.179518
  59.930   0.4968261719  0.75103     2162.00000 0.9055       0.945085       0.094508
 174.444   0.4968261719  0.76361     3801.00000 0.9761       0.239138       0.023912
-172.642   0.4968261719  0.92349     3801.50000 0.9860       0.139920       0.013991
-171.729   0.5014648438  0.91244      168.00000 0.8729      78.674332       7.867430
   8.707   0.5014648438  0.81754      171.00000 0.9689     321.104553      32.107109
  12.690   0.5014648438  0.98959      231.00000 0.7371      38.041870       3.803973
-166.711   0.5014648438  0.99587      253.50000 0.6153      25.996742       2.599634
  13.275   0.5014648438  0.99653      255.00000 0.5409      21.780521       2.178036
-166.418   0.5014648438  0.99423      271.50000 0.6818      31.433935       3.142960
-162.660   0.5014648438  0.98617      384.00000 0.5563      22.536652       2.253620
  37.249   0.5014648438  0.76996      868.00000 0.8168       1.831512       0.183151
 174.076   0.5014648438  0.75766     3801.00000 0.9761       0.239379       0.023937
-172.217   0.5014648438  0.91658     3801.50000 0.9863       0.136847       0.013683
2009  29 11 18  4 450
  38.052   0.1350097656  0.76479     1855.50000 0.8774       1.225589       0.122556
  39.959   0.1396484375  0.80537     1855.50000 0.8834       1.166501       0.116649
  39.555   0.1396484375  0.77388     1856.00000 0.8980       1.020348       0.102034
  42.186   0.1442871094  0.80321     1855.50000 0.8894       1.106227       0.110622
  42.166   0.1442871094  0.77689     1856.00000 0.9029       0.970602       0.097058
  44.762   0.1489257812  0.75236     1855.50000 0.8953       1.046579       0.104658
  61.682   0.1767578125  0.76202     3507.00000 0.8028       1.972392       0.197228
  65.408   0.1860351562  0.75474     2865.50000 0.9632       0.368443       0.036844
  67.672   0.1906738281  0.79038     2865.50000 0.9672       0.327990       0.032799
  67.165   0.1953125000  0.76255     2865.00000 0.9825       0.174665       0.017466
  70.512   0.1953125000  0.80868     2865.50000 0.9708       0.292316       0.029232
  73.691   0.1999511719  0.83212     2865.00000 0.9860       0.139980       0.013998
  73.978   0.1999511719  0.87133     2865.50000 0.9738       0.261585       0.026159
  83.151   0.2045898438  0.86215     2865.00000 0.9887       0.113081       0.011308
  95.833   0.2092285156  0.83471     2865.00000 0.9905       0.095035       0.009503
 110.423   0.2138671875  0.80523     2865.00000 0.9914       0.086333       0.008633
 124.017   0.2185058594  0.77132     2865.00000 0.9914       0.085745       0.008574
-107.407   0.2231445312  0.77687      413.00000 0.6858       3.142321       0.314214
-106.678   0.2277832031  0.77121      413.50000 0.7836       2.163661       0.216366
-107.085   0.2324218750  0.76864      413.50000 0.7865       2.134637       0.213464
-105.937   0.2370605469  0.77807      414.00000 0.8476       1.524106       0.152407
-106.100   0.2416992188  0.76251      414.00000 0.8500       1.500425       0.150039
 -76.512   0.2973632812  0.75205     1416.50000 0.8674       1.326138       0.132610
 -77.098   0.3020019531  0.79051     1416.50000 0.8676       1.323636       0.132359
-112.261   0.3020019531  0.79349     3368.00000 0.9806       0.193745       0.019374
 -77.663   0.3066406250  0.79379     1416.50000 0.8679       1.321433       0.132138
-115.086   0.3066406250  0.81780     3368.00000 0.9810       0.189580       0.018958
 -78.207   0.3112792969  0.79609     1416.50000 0.8681       1.319497       0.131944
-118.222   0.3112792969  0.82434     3368.00000 0.9816       0.184112       0.018411
-121.775   0.3159179688  0.81449     3368.00000 0.9822       0.177506       0.017751
-125.877   0.3205566406  0.79505     3368.00000 0.9830       0.169993       0.016999
-130.689   0.3251953125  0.77056     3368.00000 0.9838       0.161886       0.016188
  58.854   0.3715820312  0.77018     1195.00000 0.9468       0.531648       0.053164
  49.310   0.3715820312  0.75012     1196.00000 0.8729       1.271415       0.127141
  59.134   0.3762207031  0.76670     1195.00000 0.9481       0.518659       0.051865
  49.185   0.3808593750  0.84197     1196.00000 0.8705       1.295316       0.129531
  74.092   0.3947753906  0.76339     2014.50000 0.8673       1.326628       0.132663
  74.346   0.3994140625  0.77365     2014.50000 0.8629       1.370782       0.137078
  74.585   0.4040527344  0.78181     2014.50000 0.8584       1.416025       0.141602
  57.499   0.4040527344  0.75328     3218.00000 0.8995       1.004975       0.100495
  74.808   0.4086914062  0.78846     2014.50000 0.8538       1.462346       0.146235
  57.840   0.4086914062  0.76512     3218.00000 0.8969       1.031027       0.103100
  75.017   0.4133300781  0.79403     2014.50000 0.8490       1.509737       0.150974
  58.157   0.4133300781  0.77560     3218.00000 0.8942       1.057695       0.105767
 -98.230   0.4179687500  0.75310     1286.50000 0.9754       0.245565       0.024555
  75.213   0.4179687500  0.80586     2014.50000 0.8442       1.558184       0.155818
  58.452   0.4179687500  0.79729     3218.00000 0.8915       1.084969       0.108494
 -98.435   0.4226074219  0.75016     1286.50000 0.9759       0.241384       0.024137
  58.726   0.4226074219  0.80351     3218.00000 0.8887       1.112845       0.111282
  58.980   0.4272460938  0.80900     3218.00000 0.8859       1.141317       0.114129
  59.215   0.4318847656  0.81385     3218.00000 0.8830       1.170379       0.117035
  59.433   0.4365234375  0.81817     3218.00000 0.8800       1.200026       0.120000
  59.636   0.4411621094  0.82203     3218.00000 0.8770       1.230255       0.123023
  59.823   0.4458007812  0.82550     3218.00000 0.8739       1.261062       0.126103
  59.996   0.4504394531  0.82864     3218.00000 0.8708       1.292443       0.129241
  60.156   0.4550781250  0.83149     3218.00000 0.8676       1.324392       0.132436
  60.304   0.4597167969  0.83410     3218.00000 0.8643       1.356909       0.135688
 100.746   0.4597167969  0.75136     3372.00000 0.9411       0.589461       0.058945
  60.440   0.4643554688  0.85124     3218.00000 0.8610       1.389989       0.138995
 100.344   0.4643554688  0.75626     3372.00000 0.9365       0.634959       0.063494
   5.907   0.4643554688  0.75792     3761.00000 0.9835       0.164684       0.016468
  28.035   0.4643554688  0.79191     3761.50000 0.9863       0.137328       0.013732
  60.566   0.4689941406  0.85193     3218.00000 0.8576       1.423628       0.142359
  28.874   0.4689941406  0.78129     3761.50000 0.9869       0.130563       0.013055
  60.682   0.4736328125  0.85260     3218.00000 0.8542       1.457825       0.145779
  29.838   0.4736328125  0.77009     3761.50000 0.9876       0.123866       0.012386
  60.788   0.4782714844  0.85326     3218.00000 0.8507       1.492576       0.149254
  30.947   0.4782714844  0.75823     3761.50000 0.9883       0.117244       0.011724
  60.887   0.4829101562  0.85391     3218.00000 0.8472       1.527876       0.152784
  60.977   0.4875488281  0.85455     3218.00000 0.8436       1.563725       0.156368
  61.060   0.4921875000  0.85518     3218.00000 0.8400       1.600116       0.160007
  61.135   0.4968261719  0.85580     3218.00000 0.8363       1.637050       0.163701
  61.205   0.5014648438  0.85641     3218.00000 0.8326       1.674521       0.167447
2009  29 12 25 59 450
  46.230   0.1721191406  0.75390     2350.50000 0.8478       1.521773       0.152172
  45.363   0.1767578125  0.76484     2350.50000 0.8520       1.480456       0.148040
  45.510   0.1767578125  0.75347     2351.00000 0.8542       1.458129       0.145812
  44.495   0.1813964844  0.75812     2350.50000 0.8561       1.439486       0.143943
  53.652   0.1906738281  0.75262     2344.50000 0.9346       0.654233       0.065421
  55.486   0.1953125000  0.76445     2344.50000 0.9341       0.658724       0.065869
  58.441   0.1953125000  0.79043     2345.00000 0.9418       0.582262       0.058223
 -13.202   0.1953125000  0.78162     3299.50000 0.9451       0.549456       0.054937
 -12.753   0.1953125000  0.76800     3300.00000 0.9447       0.553275       0.055320
  57.289   0.1999511719  0.76369     2344.50000 0.9337       0.663288       0.066325
  61.356   0.1999511719  0.78614     2345.00000 0.9404       0.596452       0.059641
 -12.904   0.1999511719  0.75756     3299.50000 0.9454       0.546355       0.054628
  59.041   0.2045898438  0.76755     2344.50000 0.9333       0.667446       0.066739
  64.320   0.2045898438  0.83068     2345.00000 0.9386       0.614262       0.061421
  67.303   0.2092285156  0.81544     2345.00000 0.9364       0.636077       0.063600
  79.825   0.3483886719  0.76879     3761.50000 0.8661       1.338551       0.133854
  80.132   0.3530273438  0.76065     3761.50000 0.8692       1.308191       0.130818
  80.451   0.3576660156  0.75184     3761.50000 0.8721       1.278944       0.127894
-117.682   0.4504394531  0.75489     2393.00000 0.7847       2.152636       0.215263
-117.596   0.4550781250  0.77200     2393.00000 0.7788       2.212059       0.221205
-117.515   0.4597167969  0.78781     2393.00000 0.7728       2.272187       0.227218
-117.437   0.4643554688  0.87216     2393.00000 0.7667       2.333003       0.233300
-117.363   0.4689941406  0.88281     2393.00000 0.7606       2.394485       0.239448
-117.292   0.4736328125  0.89214     2393.00000 0.7543       2.456615       0.245661
 -73.981   0.4736328125  0.75139     3875.00000 0.8583       1.417203       0.141710
-117.225   0.4782714844  0.90028     2393.00000 0.7481       2.519376       0.251937
 -73.944   0.4782714844  0.75622     3875.00000 0.8553       1.446926       0.144681
-117.160   0.4829101562  0.90736     2393.00000 0.7417       2.582747       0.258274
 -73.905   0.4829101562  0.76185     3875.00000 0.8523       1.477032       0.147692
 -96.752   0.4875488281  0.79148      660.00000 0.6913       3.087236       0.308690
-117.098   0.4875488281  0.91352     2393.00000 0.7353       2.646710       0.264670
 -73.865   0.4875488281  0.76822     3875.00000 0.8493       1.507518       0.150740
 -96.548   0.4921875000  0.79642      660.00000 0.6830       3.170602       0.317026
-117.039   0.4921875000  0.91890     2393.00000 0.7289       2.711248       0.271124
 -73.823   0.4921875000  0.77520     3875.00000 0.8462       1.538376       0.153825
 -96.348   0.4968261719  0.80115      660.00000 0.6745       3.255119       0.325477
-116.982   0.4968261719  0.92361     2393.00000 0.7224       2.776339       0.277633
 -73.779   0.4968261719  0.78268     3875.00000 0.8431       1.569601       0.156947
 -96.154   0.5014648438  0.80567      660.00000 0.6660       3.340753       0.334040
  65.444   0.5014648438  0.95366     2391.00000 0.6002       3.997889       0.399770
 -73.734   0.5014648438  0.79050     3875.00000 0.8399       1.601186       0.160105
2009  29 13 33 54 450
 -91.818   0.2509765625  0.76847     2120.50000 0.9321       0.678619       0.067862
 -91.382   0.2556152344  0.76683     2120.50000 0.9313       0.686705       0.068670
 -90.466   0.2648925781  0.75738     2120.50000 0.9303       0.696841       0.069684
 -89.982   0.2695312500  0.81669     2120.50000 0.9301       0.699147       0.069914
 -89.480   0.2741699219  0.81941     2120.50000 0.9300       0.699762       0.069976
 -88.958   0.2788085938  0.81620     2120.50000 0.9301       0.698786       0.069878
 -88.415   0.2834472656  0.82156     2120.50000 0.9304       0.696313       0.069631
 -87.849   0.2880859375  0.81153     2120.50000 0.9308       0.692432       0.069243
 -87.260   0.2927246094  0.79665     2120.50000 0.9313       0.687222       0.068721
 -86.645   0.2973632812  0.77583     2120.50000 0.9319       0.680763       0.068075
 -86.003   0.3020019531  0.83055     2120.50000 0.9327       0.673129       0.067312
 -85.331   0.3066406250  0.82521     2120.50000 0.9336       0.664392       0.066438
 -84.627   0.3112792969  0.81900     2120.50000 0.9345       0.654621       0.065461
-114.794   0.3251953125  0.75427     1571.00000 0.9137       0.863474       0.086346
-115.060   0.3298339844  0.75064     1571.00000 0.9143       0.856949       0.085693
-115.989   0.3483886719  0.78789     1571.00000 0.9165       0.834684       0.083467
-115.528   0.3483886719  0.75074     1571.50000 0.9174       0.826509       0.082643
-116.190   0.3530273438  0.78496     1571.00000 0.9170       0.829923       0.082991
-116.379   0.3576660156  0.78225     1571.00000 0.9175       0.825435       0.082542
-116.556   0.3623046875  0.77973     1571.00000 0.9179       0.821201       0.082119
-116.722   0.3669433594  0.77737     1571.00000 0.9183       0.817204       0.081719
-116.876   0.3715820312  0.77516     1571.00000 0.9187       0.813428       0.081342
-118.874   0.3762207031  0.78825     1570.50000 0.9202       0.798287       0.079828
-117.019   0.3762207031  0.77308     1571.00000 0.9190       0.809857       0.080985
-119.033   0.3808593750  0.80554     1570.50000 0.9202       0.797919       0.079792
-117.152   0.3808593750  0.80579     1571.00000 0.9194       0.806481       0.080647
-116.710   0.3808593750  0.77451     1571.50000 0.9215       0.785271       0.078519
-119.181   0.3854980469  0.80380     1570.50000 0.9202       0.797764       0.079776
-117.274   0.3854980469  0.80361     1571.00000 0.9197       0.803286       0.080328
-116.839   0.3854980469  0.77181     1571.50000 0.9220       0.779997       0.077992
-119.318   0.3901367188  0.80216     1570.50000 0.9202       0.797810       0.079781
-117.387   0.3901367188  0.80157     1571.00000 0.9200       0.800262       0.080025
-119.446   0.3947753906  0.80062     1570.50000 0.9202       0.798045       0.079804
-117.489   0.3947753906  0.79966     1571.00000 0.9203       0.797400       0.079739
-119.564   0.3994140625  0.79917     1570.50000 0.9202       0.798460       0.079846
-117.583   0.3994140625  0.79786     1571.00000 0.9205       0.794691       0.079468
-119.673   0.4040527344  0.79779     1570.50000 0.9201       0.799046       0.079904
-117.667   0.4040527344  0.79617     1571.00000 0.9208       0.792125       0.079212
-119.774   0.4086914062  0.79649     1570.50000 0.9200       0.799794       0.079979
-117.742   0.4086914062  0.79458     1571.00000 0.9210       0.789695       0.078969
-119.866   0.4133300781  0.79525     1570.50000 0.9199       0.800697       0.080069
-117.809   0.4133300781  0.79308     1571.00000 0.9213       0.787394       0.078739
-119.950   0.4179687500  0.80227     1570.50000 0.9198       0.801748       0.080174
-117.868   0.4179687500  0.80284     1571.00000 0.9215       0.785215       0.078521
-120.027   0.4226074219  0.80081     1570.50000 0.9197       0.802940       0.080293
-117.919   0.4226074219  0.80115     1571.00000 0.9217       0.783151       0.078314
-120.097   0.4272460938  0.79943     1570.50000 0.9196       0.804268       0.080426
-117.962   0.4272460938  0.79956     1571.00000 0.9219       0.781197       0.078119
-120.160   0.4318847656  0.79813     1570.50000 0.9194       0.805726       0.080572
-117.997   0.4318847656  0.79806     1571.00000 0.9221       0.779346       0.077934
-120.217   0.4365234375  0.79691     1570.50000 0.9193       0.807308       0.080730
-118.026   0.4365234375  0.79665     1571.00000 0.9222       0.777592       0.077758
-120.267   0.4411621094  0.79577     1570.50000 0.9191       0.809010       0.080900
-118.048   0.4411621094  0.79533     1571.00000 0.9224       0.775933       0.077593
-120.312   0.4458007812  0.79470     1570.50000 0.9189       0.810826       0.081082
-118.064   0.4458007812  0.79408     1571.00000 0.9226       0.774361       0.077435
-120.351   0.4504394531  0.79370     1570.50000 0.9187       0.812754       0.081275
-118.073   0.4504394531  0.79291     1571.00000 0.9227       0.772872       0.077287
-120.385   0.4550781250  0.79277     1570.50000 0.9185       0.814788       0.081478
-118.076   0.4550781250  0.79181     1571.00000 0.9229       0.771462       0.077146
-120.415   0.4597167969  0.79191     1570.50000 0.9183       0.816924       0.081692
-118.073   0.4597167969  0.79078     1571.00000 0.9230       0.770127       0.077012
-141.585   0.4643554688  0.76279      702.50000 0.8518       1.481914       0.148186
-120.440   0.4643554688  0.78340     1570.50000 0.9181       0.819159       0.081915
-118.065   0.4643554688  0.77860     1571.00000 0.9231       0.768862       0.076886
 -65.478   0.4643554688  0.79008     1710.00000 0.9330       0.670380       0.067037
-141.359   0.4689941406  0.78663      702.50000 0.8467       1.532747       0.153269
-120.460   0.4689941406  0.78240     1570.50000 0.9179       0.821490       0.082148
-118.052   0.4689941406  0.77749     1571.00000 0.9232       0.767665       0.076766
 -65.636   0.4689941406  0.78617     1710.00000 0.9331       0.668997       0.066898
  52.249   0.4689941406  0.75412     1977.00000 0.8888       1.112322       0.111231
-141.145   0.4736328125  0.80768      702.50000 0.8416       1.584195       0.158413
-120.476   0.4736328125  0.78147     1570.50000 0.9176       0.823912       0.082390
-118.033   0.4736328125  0.77648     1571.00000 0.9233       0.766530       0.076652
 -65.794   0.4736328125  0.78228     1710.00000 0.9333       0.667512       0.066750
  52.397   0.4736328125  0.76303     1977.00000 0.8853       1.146870       0.114685
-140.940   0.4782714844  0.82555      702.50000 0.8364       1.636246       0.163618
-120.489   0.4782714844  0.78061     1570.50000 0.9174       0.826423       0.082641
-118.010   0.4782714844  0.77554     1571.00000 0.9235       0.765455       0.076545
 -65.953   0.4782714844  0.77841     1710.00000 0.9334       0.665932       0.066592
  52.535   0.4782714844  0.77089     1977.00000 0.8818       1.181862       0.118185
-140.745   0.4829101562  0.84050      702.50000 0.8311       1.688883       0.168881
-120.498   0.4829101562  0.77981     1570.50000 0.9171       0.829019       0.082901
-117.982   0.4829101562  0.77468     1571.00000 0.9236       0.764435       0.076443
 -66.112   0.4829101562  0.77457     1710.00000 0.9336       0.664258       0.066424
  52.665   0.4829101562  0.77780     1977.00000 0.8783       1.217299       0.121728
-140.558   0.4875488281  0.85300      702.50000 0.8258       1.742092       0.174202
-120.504   0.4875488281  0.77908     1570.50000 0.9168       0.831697       0.083169
-117.950   0.4875488281  0.77390     1571.00000 0.9237       0.763469       0.076346
  52.787   0.4875488281  0.78386     1977.00000 0.8747       1.253179       0.125316
-140.380   0.4921875000  0.86353      702.50000 0.8204       1.795857       0.179578
-120.506   0.4921875000  0.77842     1570.50000 0.9166       0.834456       0.083444
-117.913   0.4921875000  0.77319     1571.00000 0.9237       0.762552       0.076255
  52.902   0.4921875000  0.78916     1977.00000 0.8711       1.289503       0.128949
-140.209   0.4968261719  0.87249      702.50000 0.8150       1.850167       0.185009
-120.506   0.4968261719  0.77781     1570.50000 0.9163       0.837290       0.083728
-117.872   0.4968261719  0.77256     1571.00000 0.9238       0.761681       0.076168
  53.010   0.4968261719  0.79375     1977.00000 0.8674       1.326270       0.132625
-140.045   0.5014648438  0.88011      702.50000 0.8095       1.905007       0.190492
-120.502   0.5014648438  0.77726     1570.50000 0.9160       0.840200       0.084019
-117.828   0.5014648438  0.77200     1571.00000 0.9239       0.760855       0.076085
  53.111   0.5014648438  0.79772     1977.00000 0.8637       1.363479       0.136346
2009  29 14 41 49 450
-108.713   0.2370605469  0.80781     2437.00000 0.9009       0.990981       0.099096
-109.221   0.2416992188  0.81732     2437.00000 0.9003       0.996618       0.099659
-109.700   0.2463378906  0.82602     2437.00000 0.8999       1.001133       0.100111
-107.713   0.2463378906  0.75424     2437.50000 0.8925       1.075249       0.107514
-110.153   0.2509765625  0.89692     2437.00000 0.8995       1.004633       0.100461
-108.191   0.2509765625  0.83054     2437.50000 0.8919       1.081467       0.108136
-110.582   0.2556152344  0.90275     2437.00000 0.8993       1.007219       0.100719
-108.637   0.2556152344  0.83778     2437.50000 0.8913       1.087095       0.108698
-110.989   0.2602539062  0.90774     2437.00000 0.8991       1.008979       0.100895
-109.053   0.2602539062  0.84420     2437.50000 0.8908       1.092205       0.109209
-111.374   0.2648925781  0.95055     2437.00000 0.8990       1.009993       0.100996
-109.442   0.2648925781  0.90828     2437.50000 0.8903       1.096865       0.109675
-111.738   0.2695312500  0.95200     2437.00000 0.8990       1.010331       0.101030
-112.083   0.2741699219  0.95259     2437.00000 0.8990       1.010058       0.101003
-112.408   0.2788085938  0.95225     2437.00000 0.8991       1.009229       0.100920
-112.714   0.2834472656  0.96299     2437.00000 0.8992       1.007895       0.100787
-115.292   0.2880859375  0.96209     2436.50000 0.8995       1.005474       0.100546
-113.003   0.2880859375  0.95867     2437.00000 0.8994       1.006100       0.100607
-115.587   0.2927246094  0.95528     2436.50000 0.8999       1.000545       0.100054
-113.273   0.2927246094  0.95249     2437.00000 0.8996       1.003882       0.100386
-109.167   0.2973632812  0.77455     2433.50000 0.7406       2.593642       0.259354
-115.873   0.2973632812  0.94566     2436.50000 0.9005       0.995091       0.099508
-113.527   0.2973632812  0.94348     2437.00000 0.8999       1.001278       0.100125
-108.970   0.3020019531  0.84064     2433.50000 0.7356       2.643895       0.264381
-111.094   0.3020019531  0.91061     2434.00000 0.7485       2.514982       0.251497
-116.150   0.3020019531  0.92658     2436.50000 0.9011       0.989153       0.098914
-113.764   0.3020019531  0.92671     2437.00000 0.9002       0.998317       0.099829
-108.787   0.3066406250  0.83473     2433.50000 0.7306       2.693992       0.269392
-111.050   0.3066406250  0.90334     2434.00000 0.7450       2.549931       0.254993
-116.418   0.3066406250  0.89793     2436.50000 0.9017       0.982764       0.098276
-113.986   0.3066406250  0.89812     2437.00000 0.9005       0.995026       0.099500
-108.616   0.3112792969  0.82777     2433.50000 0.7256       2.743795       0.274374
-111.017   0.3112792969  0.89446     2434.00000 0.7416       2.584159       0.258416
-116.679   0.3112792969  0.81823     2436.50000 0.9024       0.975958       0.097595
-114.192   0.3112792969  0.81843     2437.00000 0.9009       0.991430       0.099141
-108.457   0.3159179688  0.81963     2433.50000 0.7207       2.793176       0.279314
-110.994   0.3159179688  0.88363     2434.00000 0.7382       2.617656       0.261766
-116.932   0.3159179688  0.80401     2436.50000 0.9031       0.968762       0.096875
-114.384   0.3159179688  0.80440     2437.00000 0.9012       0.987551       0.098753
-108.310   0.3205566406  0.81009     2433.50000 0.7158       2.842025       0.284200
-110.982   0.3205566406  0.87044     2434.00000 0.7350       2.650422       0.265042
-117.178   0.3205566406  0.81063     2436.50000 0.9039       0.961202       0.096119
-114.562   0.3205566406  0.81107     2437.00000 0.9017       0.983409       0.098339
 -29.184   0.3251953125  0.76976      179.50000 0.9705       0.295243       0.029523
-110.978   0.3251953125  0.92625     2434.00000 0.7318       2.682467       0.268246
-117.418   0.3251953125  0.78912     2436.50000 0.9047       0.953300       0.095329
-114.727   0.3251953125  0.79373     2437.00000 0.9021       0.979019       0.097900
 -29.719   0.3298339844  0.75714      179.50000 0.9712       0.288269       0.028825
 -34.126   0.3298339844  0.75607      180.00000 0.9572       0.427708       0.042771
-110.981   0.3298339844  0.91420     2434.00000 0.7286       2.713812       0.271380
-117.652   0.3298339844  0.78759     2436.50000 0.9055       0.945077       0.094507
-114.879   0.3298339844  0.79295     2437.00000 0.9026       0.974399       0.097438
-110.993   0.3344726562  0.89925     2434.00000 0.7256       2.744488       0.274447
-113.509   0.3437500000  0.79169     2434.50000 0.7607       2.392849       0.239285
 -97.443   0.3483886719  0.75488      245.50000 0.9570       0.429978       0.042997
-131.072   0.3483886719  0.75117     2384.00000 0.8065       1.935375       0.193531
-113.575   0.3483886719  0.82779     2434.50000 0.7588       2.412079       0.241207
-115.375   0.3483886719  0.75870     2437.00000 0.9046       0.953875       0.095386
 -96.757   0.3530273438  0.75161      245.50000 0.9577       0.422625       0.042262
-130.909   0.3530273438  0.75240     2384.00000 0.8056       1.943686       0.194362
-113.641   0.3530273438  0.79170     2434.50000 0.7569       2.431292       0.243129
-130.758   0.3576660156  0.75243     2384.00000 0.8048       1.952534       0.195246
-113.707   0.3576660156  0.75096     2434.50000 0.7549       2.450534       0.245053
-130.621   0.3623046875  0.75103     2384.00000 0.8038       1.961953       0.196187
-110.558   0.4458007812  0.77122      796.50000 0.7548       2.452204       0.245204
-110.486   0.4504394531  0.77390      796.50000 0.7476       2.524076       0.252389
 -99.844   0.4504394531  0.87620      892.00000 0.6442       3.558117       0.355770
-110.417   0.4550781250  0.77678      796.50000 0.7403       2.596951       0.259674
 -99.783   0.4550781250  0.88058      892.00000 0.6337       3.663623       0.366320
-110.350   0.4597167969  0.77989      796.50000 0.7329       2.670802       0.267056
 -99.720   0.4597167969  0.88458      892.00000 0.6230       3.770767       0.377033
-110.286   0.4643554688  0.76583      796.50000 0.7255       2.745602       0.274533
 -83.616   0.4643554688  0.75080      822.00000 0.5804       4.195858       0.419574
 -99.655   0.4643554688  0.88198      892.00000 0.6121       3.879536       0.387908
-110.224   0.4689941406  0.76936      796.50000 0.7179       2.821324       0.282102
 -83.683   0.4689941406  0.75624      822.00000 0.5731       4.269436       0.426931
 -99.589   0.4689941406  0.88614      892.00000 0.6011       3.989920       0.398945
-114.459   0.4689941406  0.75142     2434.50000 0.7007       2.992597       0.299256
-110.165   0.4736328125  0.77308      796.50000 0.7102       2.897938       0.289760
 -99.523   0.4736328125  0.88999      892.00000 0.5899       4.101902       0.410142
-114.451   0.4736328125  0.76000     2434.50000 0.6980       3.019995       0.301996
 -99.455   0.4782714844  0.89356      892.00000 0.5785       4.215467       0.421496
-114.440   0.4782714844  0.76761     2434.50000 0.6952       3.047813       0.304778
-114.427   0.4829101562  0.77417     2434.50000 0.6924       3.076048       0.307601
-114.412   0.4875488281  0.77965     2434.50000 0.6895       3.104696       0.310466
-114.394   0.4921875000  0.78402     2434.50000 0.6866       3.133752       0.313372
-114.375   0.4968261719  0.78727     2434.50000 0.6837       3.163215       0.316318
 -78.902   0.5014648438  0.75494     2259.00000 0.8089       1.910929       0.191089
-114.353   0.5014648438  0.78939     2434.50000 0.6807       3.193080       0.319305
2009  29 15 49 44 450
 -79.303   0.2277832031  0.78390      819.50000 0.9285       0.715201       0.071516
 -78.166   0.2324218750  0.75720      819.50000 0.9306       0.694517       0.069448
 -76.982   0.2370605469  0.75934      819.50000 0.9324       0.676062       0.067603
  47.999   0.3159179688  0.75678     2898.00000 0.9897       0.103185       0.010318
  46.778   0.3205566406  0.76754     2898.00000 0.9894       0.106489       0.010648
  45.674   0.3251953125  0.78809     2898.00000 0.9891       0.109008       0.010900
-110.437   0.4086914062  0.79812     3147.00000 0.3920       6.080236       0.608023
  84.711   0.4086914062  0.75537     3300.00000 0.5996       4.004435       0.400440
-110.545   0.4133300781  0.80157     3147.00000 0.3770       6.229522       0.622952
  84.615   0.4133300781  0.76616     3300.00000 0.5899       4.101331       0.410129
-110.643   0.4179687500  0.80078     3147.00000 0.3618       6.382378       0.638238
  84.521   0.4179687500  0.76169     3300.00000 0.5800       4.200311       0.420027
  83.251   0.4179687500  0.75079     3313.50000 0.4053       5.947198       0.594695
  84.428   0.4226074219  0.77109     3300.00000 0.5699       4.301366       0.430131
  83.238   0.4226074219  0.75501     3313.50000 0.3916       6.084242       0.608400
  84.336   0.4272460938  0.77962     3300.00000 0.5596       4.404479       0.440442
-105.355   0.4272460938  0.80162     3302.50000 0.6046       3.954313       0.395431
  83.223   0.4272460938  0.75934     3313.50000 0.3776       6.224167       0.622393
-105.743   0.4272460938  0.75476     3325.50000 0.8984       1.015711       0.101570
  84.247   0.4318847656  0.78738     3300.00000 0.5490       4.509637       0.450957
-105.217   0.4318847656  0.81091     3302.50000 0.5949       4.050578       0.405057
  83.207   0.4318847656  0.76374     3313.50000 0.3633       6.366959       0.636673
-105.453   0.4318847656  0.76316     3325.50000 0.8956       1.043507       0.104350
  84.159   0.4365234375  0.79444     3300.00000 0.5383       4.616821       0.461675
-105.085   0.4365234375  0.81944     3302.50000 0.5852       4.147917       0.414791
  83.190   0.4365234375  0.76815     3313.50000 0.3488       6.512594       0.651237
-105.175   0.4365234375  0.77101     3325.50000 0.8928       1.071566       0.107156
  84.072   0.4411621094  0.80089     3300.00000 0.5274       4.726014       0.472593
-104.957   0.4411621094  0.82730     3302.50000 0.5754       4.246287       0.424627
  83.172   0.4411621094  0.77255     3313.50000 0.3339       6.661060       0.666084
-104.911   0.4411621094  0.77832     3325.50000 0.8900       1.099873       0.109987
-135.917   0.4411621094  0.75607     3903.00000 0.7311       2.688921       0.268888
  83.988   0.4458007812  0.80679     3300.00000 0.5163       4.837195       0.483710
-104.833   0.4458007812  0.83455     3302.50000 0.5654       4.345636       0.434562
  83.153   0.4458007812  0.77688     3313.50000 0.3188       6.812321       0.681211
-104.659   0.4458007812  0.78512     3325.50000 0.8872       1.128411       0.112841
-135.913   0.4458007812  0.76390     3903.00000 0.7268       2.731998       0.273195
-104.714   0.4504394531  0.84125     3302.50000 0.5554       4.445914       0.444589
  83.133   0.4504394531  0.78113     3313.50000 0.3034       6.966354       0.696614
-104.419   0.4504394531  0.79142     3325.50000 0.8843       1.157164       0.115716
-135.907   0.4504394531  0.76582     3903.00000 0.7224       2.775916       0.277587
  75.156   0.4550781250  0.79125     2449.50000 0.8005       1.994805       0.199461
-104.598   0.4550781250  0.84747     3302.50000 0.5453       4.547074       0.454704
  83.112   0.4550781250  0.78526     3313.50000 0.2877       7.123123       0.712292
-104.190   0.4550781250  0.79724     3325.50000 0.8814       1.186114       0.118611
-135.899   0.4550781250  0.76305     3903.00000 0.7179       2.820673       0.282062
  75.135   0.4597167969  0.79792     2449.50000 0.7948       2.052318       0.205212
  83.092   0.4597167969  0.78927     3313.50000 0.2718       7.282593       0.728239
-103.971   0.4597167969  0.80259     3325.50000 0.8785       1.215247       0.121524
-135.890   0.4597167969  0.75735     3903.00000 0.7134       2.866267       0.286621
  75.114   0.4643554688  0.84021     2449.50000 0.7889       2.110772       0.211056
  59.206   0.4643554688  0.81370     3162.00000 0.6606       3.394199       0.339410
-103.762   0.4643554688  0.80274     3325.50000 0.8755       1.244545       0.124454
-135.879   0.4643554688  0.75567     3903.00000 0.7087       2.912695       0.291263
  75.094   0.4689941406  0.84616     2449.50000 0.7830       2.170152       0.216993
  59.225   0.4689941406  0.81775     3162.00000 0.6508       3.492483       0.349240
  75.075   0.4736328125  0.85168     2449.50000 0.7770       2.230439       0.223021
  59.241   0.4736328125  0.82178     3162.00000 0.6408       3.592235       0.359216
  75.056   0.4782714844  0.85683     2449.50000 0.7709       2.291616       0.229138
  59.255   0.4782714844  0.82581     3162.00000 0.6307       3.693450       0.369338
  75.038   0.4829101562  0.86162     2449.50000 0.7647       2.353664       0.235341
  59.267   0.4829101562  0.82983     3162.00000 0.6204       3.796123       0.379606
-135.819   0.4829101562  0.75631     3903.00000 0.6893       3.106681       0.310660
  75.020   0.4875488281  0.86608     2449.50000 0.7584       2.416564       0.241630
  59.277   0.4875488281  0.83385     3162.00000 0.6100       3.900244       0.390019
-135.801   0.4875488281  0.76968     3903.00000 0.6843       3.157228       0.315714
  75.003   0.4921875000  0.87024     2449.50000 0.7520       2.480300       0.248002
  59.286   0.4921875000  0.83785     3162.00000 0.5994       4.005801       0.400576
-135.782   0.4921875000  0.78630     3903.00000 0.6792       3.208586       0.320849
-116.285   0.4968261719  0.75108     2687.00000 0.4524       5.476151       0.547590
  59.293   0.4968261719  0.84184     3162.00000 0.5887       4.112781       0.411275
-135.761   0.4968261719  0.80327     3903.00000 0.6739       3.260750       0.326065
 -89.708   0.4968261719  0.76455     4032.00000 0.0397      10.415067       1.041354
-116.255   0.5014648438  0.75529     2687.00000 0.4418       5.581798       0.558155
  59.300   0.5014648438  0.84579     3162.00000 0.5779       4.221163       0.422113
-135.740   0.5014648438  0.81866     3903.00000 0.6686       3.313720       0.331362
 -89.698   0.5014648438  0.76512     4032.00000 0.0328      10.340441       1.033955
2009  29 16 57 39 450
-118.154   0.1303710938  0.75993     1760.50000 0.7866       2.133775       0.213376
-118.619   0.1303710938  0.76380     1761.00000 0.7560       2.440291       0.244024
  82.286   0.1303710938  0.75213     2940.50000 0.8985       1.015429       0.101543
  83.612   0.1303710938  0.75207     2941.00000 0.9157       0.842522       0.084252
  84.881   0.1303710938  0.75353     2941.50000 0.9317       0.683145       0.068314
-113.679   0.1350097656  0.77846     1759.00000 0.8710       1.290044       0.129000
-116.981   0.1350097656  0.80159     1759.50000 0.8449       1.551359       0.155135
-118.975   0.1350097656  0.82103     1760.00000 0.8160       1.840129       0.184013
-119.955   0.1350097656  0.83215     1760.50000 0.7861       2.139103       0.213910
  74.452   0.1350097656  0.77216     2935.00000 0.9151       0.849432       0.084943
  72.906   0.1396484375  0.79636     2935.00000 0.9017       0.983381       0.098338
  71.630   0.1442871094  0.82782     2935.00000 0.8894       1.106244       0.110624
  70.537   0.1489257812  0.82582     2935.00000 0.8778       1.221845       0.122183
  69.583   0.1535644531  0.79136     2935.00000 0.8667       1.332924       0.133290
  84.669   0.1582031250  0.87006     2947.00000 0.9133       0.866580       0.086658
  82.739   0.1582031250  0.87066     2947.50000 0.9144       0.855615       0.085562
  85.737   0.1628417969  0.83150     2946.50000 0.9131       0.868806       0.086879
  84.546   0.1628417969  0.83064     2947.00000 0.9135       0.864705       0.086469
  82.533   0.1628417969  0.83234     2947.50000 0.9145       0.854574       0.085457
  79.430   0.1628417969  0.83608     2948.00000 0.9145       0.855488       0.085549
  85.711   0.1674804688  0.77929     2946.50000 0.9132       0.868228       0.086819
  84.411   0.1674804688  0.77843     2947.00000 0.9137       0.863233       0.086321
  82.303   0.1674804688  0.78031     2947.50000 0.9148       0.852449       0.085244
  79.129   0.1674804688  0.78446     2948.00000 0.9146       0.853755       0.085375
 -84.078   0.2138671875  0.84243      451.00000 0.9368       0.631792       0.063174
 -90.445   0.2138671875  0.83775      451.50000 0.9245       0.755101       0.075506
 -95.085   0.2138671875  0.77784      452.00000 0.9059       0.940721       0.094068
 -83.874   0.2185058594  0.85342      451.00000 0.9396       0.603976       0.060392
 -90.732   0.2185058594  0.84500      451.50000 0.9269       0.730864       0.073081
 -95.591   0.2185058594  0.78412      452.00000 0.9077       0.923051       0.092300
 -83.609   0.2231445312  0.89093      451.00000 0.9424       0.576020       0.057595
 -91.005   0.2231445312  0.88887      451.50000 0.9293       0.706571       0.070651
 -96.097   0.2231445312  0.85177      452.00000 0.9094       0.905656       0.090559
 -98.923   0.2231445312  0.78598      452.50000 0.8856       1.144011       0.114395
 -91.264   0.2277832031  0.88107      451.50000 0.9318       0.682304       0.068223
 -96.600   0.2277832031  0.84846      452.00000 0.9112       0.888533       0.088846
 -99.476   0.2277832031  0.78751      452.50000 0.8863       1.137086       0.113702
 -91.506   0.2324218750  0.86999      451.50000 0.9342       0.658131       0.065805
 -97.100   0.2324218750  0.84128      452.00000 0.9128       0.871680       0.087159
-100.025   0.2324218750  0.78577      452.50000 0.8869       1.130882       0.113081
 -91.730   0.2370605469  0.85733      451.50000 0.9366       0.634109       0.063402
 -97.594   0.2370605469  0.85380      452.00000 0.9145       0.855100       0.085500
 -98.082   0.2416992188  0.83252      452.00000 0.9161       0.838802       0.083870
 -93.667   0.3020019531  0.75308      458.50000 0.8974       1.026305       0.102630
 -93.424   0.3066406250  0.75717      458.50000 0.8986       1.014146       0.101415
 -93.186   0.3112792969  0.76038      458.50000 0.8998       1.002362       0.100236
 -92.953   0.3159179688  0.76277      458.50000 0.9009       0.990967       0.099097
 -92.726   0.3205566406  0.76438      458.50000 0.9020       0.979976       0.097998
 -92.504   0.3251953125  0.81482      458.50000 0.9031       0.969403       0.096940
 -92.287   0.3298339844  0.81349      458.50000 0.9041       0.959257       0.095926
 -92.076   0.3344726562  0.81158      458.50000 0.9050       0.949554       0.094955
 -91.870   0.3391113281  0.80908      458.50000 0.9060       0.940302       0.094030
 -91.671   0.3437500000  0.80598      458.50000 0.9068       0.931511       0.093151
 -91.478   0.3483886719  0.80265      458.50000 0.9077       0.923188       0.092318
 -91.292   0.3530273438  0.79797      458.50000 0.9085       0.915338       0.091533
 -91.113   0.3576660156  0.79256      458.50000 0.9092       0.907966       0.090795
 -90.941   0.3623046875  0.78636      458.50000 0.9099       0.901074       0.090106
 -90.778   0.3669433594  0.77927      458.50000 0.9105       0.894662       0.089464
  78.940   0.3808593750  0.87371     3735.50000 0.7000       3.000504       0.300026
  78.833   0.3854980469  0.87601     3735.50000 0.6883       3.117496       0.311722
  78.731   0.3901367188  0.87776     3735.50000 0.6763       3.237586       0.323728
  78.632   0.3947753906  0.87893     3735.50000 0.6640       3.360764       0.336042
  78.538   0.3994140625  0.87954     3735.50000 0.6513       3.487015       0.348664
-121.849   0.3994140625  0.88076     4069.50000 0.7365       2.635223       0.263502
  78.448   0.4040527344  0.87956     3735.50000 0.6384       3.616330       0.361592
-121.730   0.4040527344  0.88206     4069.50000 0.7316       2.684394       0.268418
  78.362   0.4086914062  0.87898     3735.50000 0.6252       3.748696       0.374825
-121.626   0.4086914062  0.88277     4069.50000 0.7266       2.734499       0.273427
  78.279   0.4133300781  0.87778     3735.50000 0.6116       3.884104       0.388362
-121.526   0.4133300781  0.88288     4069.50000 0.7214       2.786626       0.278638
  78.200   0.4179687500  0.86640     3735.50000 0.5978       4.022539       0.402201
-121.433   0.4179687500  0.87649     4069.50000 0.7162       2.838303       0.283805
  78.124   0.4226074219  0.86364     3735.50000 0.5837       4.163986       0.416342
  78.051   0.4272460938  0.86011     3735.50000 0.5692       4.308433       0.430782
  16.450   0.4597167969  0.75534     1303.00000 0.8342       1.658559       0.165843
  16.410   0.4643554688  0.79647     1303.00000 0.8307       1.692844       0.169271
  16.380   0.4689941406  0.80332     1303.00000 0.8272       1.727906       0.172777
  16.358   0.4736328125  0.80981     1303.00000 0.8236       1.763735       0.176360
  16.345   0.4782714844  0.81596     1303.00000 0.8200       1.800323       0.180018
  16.339   0.4829101562  0.82182     1303.00000 0.8162       1.837663       0.183752
  16.340   0.4875488281  0.82742     1303.00000 0.8124       1.875744       0.187560
  16.347   0.4921875000  0.83279     1303.00000 0.8086       1.914562       0.191441
  16.360   0.4968261719  0.83794     1303.00000 0.8046       1.954106       0.195395
  16.379   0.5014648438  0.84289     1303.00000 0.8006       1.994371       0.199421
2009  29 18  5 34 450
  53.263   0.1303710938  0.75132      761.50000 0.8477       1.522653       0.152265
  52.151   0.1350097656  0.77036      761.50000 0.8586       1.414189       0.141419
  51.753   0.1350097656  0.75036      762.00000 0.8821       1.178533       0.117852
  50.753   0.1396484375  0.76525      761.50000 0.8686       1.314479       0.131448
  50.348   0.1396484375  0.75616      762.00000 0.8893       1.107142       0.110714
  72.374   0.1953125000  0.77216      932.00000 0.9182       0.817625       0.081751
-102.692   0.1999511719  0.77654       52.00000 0.7250       2.750214       0.275017
-102.497   0.2045898438  0.81122       52.00000 0.7360       2.639647       0.263956
-102.045   0.2092285156  0.83149       52.50000 0.7620       2.379629       0.237962
-101.856   0.2138671875  0.84690       52.50000 0.7693       2.306849       0.230682
-101.657   0.2185058594  0.85616       52.50000 0.7760       2.240128       0.224007
-101.450   0.2231445312  0.86088       52.50000 0.7821       2.178727       0.217865
-101.235   0.2277832031  0.86456       52.50000 0.7878       2.121934       0.212182
-100.004   0.2277832031  0.86749       53.00000 0.8048       1.951810       0.195181
 -99.784   0.2324218750  0.86965       53.00000 0.8096       1.903561       0.190355
 -99.557   0.2370605469  0.86612       53.00000 0.8142       1.857691       0.185767
 -99.324   0.2416992188  0.86553       53.00000 0.8186       1.813942       0.181391
 -99.088   0.2463378906  0.86413       53.00000 0.8228       1.772086       0.177204
 -98.849   0.2509765625  0.85652       53.00000 0.8268       1.731932       0.173188
  62.874   0.2509765625  0.77240      929.50000 0.8916       1.084232       0.108416
 -98.609   0.2556152344  0.85360       53.00000 0.8307       1.693316       0.169324
 -95.971   0.2556152344  0.85572       53.50000 0.8468       1.531529       0.153153
  62.752   0.2556152344  0.76732      929.50000 0.8921       1.079362       0.107928
 -81.307   0.2556152344  0.79954     1133.00000 0.8284       1.715914       0.171569
 -98.370   0.2602539062  0.85025       53.00000 0.8344       1.656108       0.165602
 -95.675   0.2602539062  0.85249       53.50000 0.8503       1.496677       0.149668
  62.633   0.2602539062  0.76111      929.50000 0.8924       1.075614       0.107552
 -81.124   0.2602539062  0.80687     1133.00000 0.8268       1.731754       0.173155
 -95.377   0.2648925781  0.84149       53.50000 0.8537       1.463069       0.146307
  62.518   0.2648925781  0.86037      929.50000 0.8927       1.072973       0.107286
 -80.934   0.2648925781  0.84250     1133.00000 0.8252       1.748071       0.174788
 -95.080   0.2695312500  0.83746       53.50000 0.8569       1.430669       0.143067
  62.407   0.2695312500  0.85013      929.50000 0.8929       1.071413       0.107129
 -94.785   0.2741699219  0.83321       53.50000 0.8601       1.399441       0.139944
 -94.493   0.2788085938  0.82879       53.50000 0.8631       1.369361       0.136936
 -94.207   0.2834472656  0.81564       53.50000 0.8660       1.340402       0.134040
 -93.927   0.2880859375  0.81065       53.50000 0.8687       1.312542       0.131253
 -93.656   0.2927246094  0.80557       53.50000 0.8714       1.285761       0.128575
 -93.395   0.2973632812  0.80041       53.50000 0.8740       1.260038       0.126003
 -93.144   0.3020019531  0.78933       53.50000 0.8765       1.235358       0.123534
 -92.907   0.3066406250  0.78371       53.50000 0.8788       1.211695       0.121168
 -92.682   0.3112792969  0.77801       53.50000 0.8811       1.189036       0.118902
 -92.473   0.3159179688  0.77221       53.50000 0.8833       1.167353       0.116733
 -92.279   0.3205566406  0.76632       53.50000 0.8853       1.146630       0.114661
 -92.102   0.3251953125  0.76550       53.50000 0.8873       1.126842       0.112681
 -91.942   0.3298339844  0.75945       53.50000 0.8892       1.107968       0.110794
 -91.801   0.3344726562  0.75327       53.50000 0.8910       1.089983       0.108995
 -91.493   0.3483886719  0.75646       53.50000 0.8959       1.041129       0.104109
 -91.430   0.3530273438  0.75023       53.50000 0.8974       1.026464       0.102642
  76.359   0.3623046875  0.75551      180.00000 0.9587       0.413492       0.041349
  75.398   0.3669433594  0.77183      180.00000 0.9582       0.418372       0.041837
-118.170   0.3947753906  0.77557       49.00000 0.7119       2.880729       0.288073
-118.387   0.3994140625  0.76471       49.00000 0.7110       2.889825       0.288982
-118.600   0.4040527344  0.75330       49.00000 0.7102       2.897676       0.289767
  88.755   0.4318847656  0.75079      374.00000 0.8866       1.133644       0.113363
