  51.889   0.4968261719  0.86022      255.50000 0.8095       1.904798       0.190480
 -95.500   0.4968261719  0.80515      516.50000 0.7837       2.163641       0.216344
  60.879   0.5014648438  0.79503       48.50000 0.7088       2.912028       0.291201
  52.020   0.5014648438  0.86287      255.50000 0.8050       1.950335       0.195033
 -95.524   0.5014648438  0.80953      516.50000 0.7785       2.215149       0.221494
  54.626   0.5014648438  0.75969     2829.00000 0.7971       2.029549       0.202944
2009  10 19 12  8 350
  56.471   0.1025390625  0.78825      727.00000 0.9045       0.955306       0.095525
  58.909   0.1025390625  0.77725      727.50000 0.9036       0.964230       0.096423
  49.607   0.1071777344  0.85798      726.50000 0.8909       1.090649       0.109060
  53.200   0.1071777344  0.85328      727.00000 0.8946       1.054175       0.105417
  55.662   0.1071777344  0.84900      727.50000 0.8949       1.051166       0.105116
  44.227   0.1118164062  0.89057      726.00000 0.8758       1.241922       0.124191
  48.022   0.1118164062  0.89103      726.50000 0.8835       1.165415       0.116541
  51.406   0.1118164062  0.89142      727.00000 0.8875       1.124746       0.112474
  47.068   0.1164550781  0.87400      718.50000 0.7559       2.441323       0.244131
  32.096   0.1164550781  0.88440      723.00000 0.7798       2.202355       0.220207
  32.274   0.1164550781  0.88513      723.50000 0.7959       2.040777       0.204062
  39.922   0.1164550781  0.89244      725.50000 0.8603       1.397234       0.139723
  43.433   0.1164550781  0.89543      726.00000 0.8710       1.290143       0.129014
  47.096   0.1164550781  0.89806      726.50000 0.8783       1.216757       0.121674
  50.435   0.1164550781  0.89916      727.00000 0.8823       1.176666       0.117661
  31.594   0.1210937500  0.86691      723.50000 0.7992       2.007774       0.200753
  32.455   0.1210937500  0.87176      724.00000 0.8151       1.848782       0.184861
  34.028   0.1210937500  0.87808      724.50000 0.8310       1.689996       0.168989
  36.345   0.1210937500  0.88532      725.00000 0.8457       1.542823       0.154275
  39.361   0.1210937500  0.89240      725.50000 0.8583       1.416841       0.141679
  42.888   0.1210937500  0.89775      726.00000 0.8681       1.319085       0.131903
  46.576   0.1210937500  0.89977      726.50000 0.8747       1.253118       0.125303
  55.660   0.1210937500  0.78268      734.50000 0.8778       1.221882       0.122188
  55.796   0.1210937500  0.75195      735.00000 0.8765       1.234954       0.123495
  33.247   0.1257324219  0.85730      724.50000 0.8337       1.663580       0.166334
  35.694   0.1257324219  0.86653      725.00000 0.8469       1.531327       0.153113
  38.841   0.1257324219  0.87388      725.50000 0.8581       1.419321       0.141915
  42.497   0.1257324219  0.87760      726.00000 0.8666       1.334602       0.133442
  56.792   0.1257324219  0.76860      734.50000 0.8819       1.181006       0.118100
  56.965   0.1257324219  0.76661      735.00000 0.8799       1.201244       0.120124
  59.734   0.1489257812  0.77459      738.50000 0.8303       1.697380       0.169718
-129.692   0.3483886719  0.84134     3208.00000 0.9268       0.731823       0.073179
-132.517   0.3483886719  0.77067     3208.50000 0.9344       0.656241       0.065622
-137.220   0.3483886719  0.75050     3209.00000 0.9394       0.605953       0.060594
-129.483   0.3530273438  0.83423     3208.00000 0.9268       0.731761       0.073173
-132.305   0.3530273438  0.76662     3208.50000 0.9346       0.653756       0.065373
-137.136   0.3530273438  0.75195     3209.00000 0.9398       0.601866       0.060186
-129.267   0.3576660156  0.82712     3208.00000 0.9268       0.731821       0.073179
-132.087   0.3576660156  0.76471     3208.50000 0.9349       0.651340       0.065131
-137.053   0.3576660156  0.75497     3209.00000 0.9402       0.597808       0.059780
-129.046   0.3623046875  0.82002     3208.00000 0.9268       0.732005       0.073197
-131.865   0.3623046875  0.76627     3208.50000 0.9351       0.648998       0.064897
-136.971   0.3623046875  0.76091     3209.00000 0.9406       0.593784       0.059377
-128.819   0.3669433594  0.81294     3208.00000 0.9268       0.732314       0.073227
-131.640   0.3669433594  0.77211     3208.50000 0.9353       0.646732       0.064670
-136.890   0.3669433594  0.77061     3209.00000 0.9410       0.589798       0.058979
-128.588   0.3715820312  0.80590     3208.00000 0.9267       0.732749       0.073270
-131.412   0.3715820312  0.78206     3208.50000 0.9355       0.644547       0.064452
-136.811   0.3715820312  0.78400     3209.00000 0.9414       0.585855       0.058585
-142.902   0.3715820312  0.75947     3209.50000 0.9419       0.581462       0.058146
-128.355   0.3762207031  0.79890     3208.00000 0.9267       0.733313       0.073326
-131.181   0.3762207031  0.79484     3208.50000 0.9358       0.642443       0.064241
-136.734   0.3762207031  0.79987     3209.00000 0.9418       0.581959       0.058195
-143.081   0.3762207031  0.77702     3209.50000 0.9423       0.576865       0.057686
-128.119   0.3808593750  0.84637     3208.00000 0.9266       0.734005       0.073395
-130.950   0.3808593750  0.88161     3208.50000 0.9360       0.640423       0.064039
-136.659   0.3808593750  0.85555     3209.00000 0.9422       0.578113       0.057810
-143.269   0.3808593750  0.83315     3209.50000 0.9428       0.572284       0.057228
-127.881   0.3854980469  0.83879     3208.00000 0.9265       0.734825       0.073477
-130.717   0.3854980469  0.87515     3208.50000 0.9362       0.638488       0.063845
-136.587   0.3854980469  0.87094     3209.00000 0.9426       0.574318       0.057431
-143.468   0.3854980469  0.85109     3209.50000 0.9432       0.567723       0.056772
-127.643   0.3901367188  0.83114     3208.00000 0.9264       0.735773       0.073572
-130.485   0.3901367188  0.86850     3208.50000 0.9363       0.636638       0.063660
-136.517   0.3901367188  0.88229     3209.00000 0.9429       0.570576       0.057056
-143.677   0.3901367188  0.86479     3209.50000 0.9437       0.563186       0.056319
-127.405   0.3947753906  0.82344     3208.00000 0.9263       0.736848       0.073679
-130.253   0.3947753906  0.86165     3208.50000 0.9365       0.634873       0.063484
-136.451   0.3947753906  0.88768     3209.00000 0.9433       0.566889       0.056688
-143.896   0.3947753906  0.87241     3209.50000 0.9441       0.558673       0.055867
-127.168   0.3994140625  0.81568     3208.00000 0.9262       0.738049       0.073798
-130.022   0.3994140625  0.85460     3208.50000 0.9367       0.633192       0.063315
-136.388   0.3994140625  0.88610     3209.00000 0.9437       0.563257       0.056325
-144.124   0.3994140625  0.87300     3209.50000 0.9446       0.554190       0.055419
-126.932   0.4040527344  0.80789     3208.00000 0.9261       0.739373       0.073930
-129.793   0.4040527344  0.84737     3208.50000 0.9368       0.631596       0.063156
-136.328   0.4040527344  0.87749     3209.00000 0.9440       0.559682       0.055967
-144.363   0.4040527344  0.86651     3209.50000 0.9450       0.549736       0.054974
-126.699   0.4086914062  0.80007     3208.00000 0.9259       0.740819       0.074075
-129.565   0.4086914062  0.83995     3208.50000 0.9370       0.630082       0.063004
-136.272   0.4086914062  0.86264     3209.00000 0.9444       0.556161       0.055615
-144.611   0.4086914062  0.85372     3209.50000 0.9455       0.545314       0.054531
-126.468   0.4133300781  0.79221     3208.00000 0.9258       0.742385       0.074231
-129.341   0.4133300781  0.83235     3208.50000 0.9371       0.628650       0.062861
-136.219   0.4133300781  0.84291     3209.00000 0.9447       0.552697       0.055268
-144.868   0.4133300781  0.83597     3209.50000 0.9459       0.540924       0.054092
-126.239   0.4179687500  0.81352     3208.00000 0.9256       0.744067       0.074399
-129.119   0.4179687500  0.84816     3208.50000 0.9373       0.627297       0.062725
-136.170   0.4179687500  0.86704     3209.00000 0.9451       0.549287       0.054927
-145.135   0.4179687500  0.82706     3209.50000 0.9463       0.536568       0.053657
-126.015   0.4226074219  0.80493     3208.00000 0.9254       0.745863       0.074578
-128.900   0.4226074219  0.83994     3208.50000 0.9374       0.626020       0.062598
-136.125   0.4226074219  0.85943     3209.00000 0.9454       0.545932       0.054592
-145.411   0.4226074219  0.80127     3209.50000 0.9468       0.532246       0.053225
-125.794   0.4272460938  0.79626     3208.00000 0.9252       0.747770       0.074768
-128.685   0.4272460938  0.83159     3208.50000 0.9375       0.624821       0.062477
-136.084   0.4272460938  0.85159     3209.00000 0.9457       0.542632       0.054262
-145.696   0.4272460938  0.77547     3209.50000 0.9472       0.527959       0.052796
  52.594   0.4318847656  0.78760     1433.00000 0.4310       5.689892       0.568964
-125.578   0.4318847656  0.78754     3208.00000 0.9250       0.749783       0.074969
-128.474   0.4318847656  0.82312     3208.50000 0.9376       0.623693       0.062365
-136.047   0.4318847656  0.84353     3209.00000 0.9461       0.539384       0.053937
-145.989   0.4318847656  0.75107     3209.50000 0.9476       0.523707       0.052371
  52.524   0.4365234375  0.79662     1433.00000 0.4182       5.818519       0.581825
-125.366   0.4365234375  0.77876     3208.00000 0.9248       0.751901       0.075181
-128.267   0.4365234375  0.81453     3208.50000 0.9377       0.622636       0.062259
-136.014   0.4365234375  0.83527     3209.00000 0.9464       0.536188       0.053617
  52.458   0.4411621094  0.80331     1433.00000 0.4053       5.947435       0.594714
  58.299   0.4411621094  0.76026     1685.00000 0.7702       2.298683       0.229842
-125.159   0.4411621094  0.76992     3208.00000 0.9246       0.754117       0.075402
-128.064   0.4411621094  0.80584     3208.50000 0.9378       0.621647       0.062160
-135.985   0.4411621094  0.82682     3209.00000 0.9467       0.533043       0.053303
  52.393   0.4458007812  0.80822     1433.00000 0.3924       6.076792       0.607647
  58.227   0.4458007812  0.76559     1685.00000 0.7641       2.359201       0.235893
-124.957   0.4458007812  0.76104     3208.00000 0.9244       0.756431       0.075633
-127.866   0.4458007812  0.79704     3208.50000 0.9379       0.620723       0.062067
-135.959   0.4458007812  0.81821     3209.00000 0.9470       0.529949       0.052993
  58.157   0.4504394531  0.77089     1685.00000 0.7580       2.420646       0.242038
  57.952   0.4504394531  0.75306     2641.50000 0.8581       1.419030       0.141887
-124.761   0.4504394531  0.75210     3208.00000 0.9241       0.758835       0.075873
-127.673   0.4504394531  0.78815     3208.50000 0.9380       0.619862       0.061981
-135.938   0.4504394531  0.80944     3209.00000 0.9473       0.526903       0.052689
  58.091   0.4550781250  0.77605     1685.00000 0.7517       2.483006       0.248273
  57.796   0.4550781250  0.75935     2641.50000 0.8546       1.454062       0.145391
-127.484   0.4550781250  0.77915     3208.50000 0.9381       0.619060       0.061901
-135.920   0.4550781250  0.80054     3209.00000 0.9476       0.523903       0.052389
  58.028   0.4597167969  0.78093     1685.00000 0.7454       2.546272       0.254600
  57.644   0.4597167969  0.76531     2641.50000 0.8510       1.489802       0.148966
-127.301   0.4597167969  0.77007     3208.50000 0.9382       0.618315       0.061826
-135.907   0.4597167969  0.79151     3209.00000 0.9479       0.520950       0.052093
  57.968   0.4643554688  0.77641     1685.00000 0.7390       2.610433       0.261016
  57.496   0.4643554688  0.77133     2641.50000 0.8474       1.526245       0.152611
-127.123   0.4643554688  0.76969     3208.50000 0.9382       0.617624       0.061757
-135.897   0.4643554688  0.76815     3209.00000 0.9482       0.518042       0.051802
-148.267   0.4643554688  0.78850     3209.50000 0.9505       0.494949       0.049495
  57.911   0.4689941406  0.78020     1685.00000 0.7325       2.675478       0.267520
  57.353   0.4689941406  0.77557     2641.50000 0.8437       1.563388       0.156326
-126.950   0.4689941406  0.76018     3208.50000 0.9383       0.616984       0.061693
-135.891   0.4689941406  0.75863     3209.00000 0.9485       0.515178       0.051516
-148.622   0.4689941406  0.77924     3209.50000 0.9509       0.490986       0.049099
-112.946   0.4736328125  0.75443      565.50000 0.4659       5.341118       0.534112
  57.856   0.4736328125  0.78340     1685.00000 0.7259       2.741396       0.274112
  57.214   0.4736328125  0.77961     2641.50000 0.8399       1.601224       0.160110
-126.783   0.4736328125  0.75054     3208.50000 0.9384       0.616392       0.061633
-148.983   0.4736328125  0.76986     3209.50000 0.9513       0.487059       0.048706
-112.847   0.4782714844  0.76507      565.50000 0.4563       5.437462       0.543746
  57.079   0.4782714844  0.78345     2641.50000 0.8360       1.639751       0.163963
-149.352   0.4782714844  0.76036     3209.50000 0.9517       0.483168       0.048317
-112.751   0.4829101562  0.77510      565.50000 0.4464       5.536180       0.553618
  56.947   0.4829101562  0.78710     2641.50000 0.8321       1.678963       0.167885
-149.726   0.4829101562  0.75074     3209.50000 0.9521       0.479314       0.047931
-112.657   0.4875488281  0.78449      565.50000 0.4363       5.637246       0.563725
  56.819   0.4875488281  0.79059     2641.50000 0.8281       1.718857       0.171875
-112.566   0.4921875000  0.79325      565.50000 0.4259       5.740635       0.574063
  56.694   0.4921875000  0.79393     2641.50000 0.8241       1.759428       0.175932
-112.477   0.4968261719  0.80138      565.50000 0.4154       5.846318       0.584632
  56.573   0.4968261719  0.79711     2641.50000 0.8199       1.800672       0.180057
-112.390   0.5014648438  0.80891      565.50000 0.4046       5.954268       0.595426
  55.152   0.5014648438  0.75476     1689.00000 0.6571       3.429427       0.342942
  56.454   0.5014648438  0.80016     2641.50000 0.8158       1.842583       0.184249
2009  10 20 20  3 350
  77.597   0.0932617188  0.77068        0.50000 0.8630      72.982147       7.297408
  77.051   0.0979003906  0.77421        1.00000 0.7598      41.633202       4.162974
  50.080   0.1350097656  0.76508     2980.00000 0.9321       0.678697       0.067869
  55.549   0.1350097656  0.78397     2980.50000 0.9311       0.689329       0.068930
  60.719   0.1350097656  0.79832     2981.00000 0.9281       0.718693       0.071864
  67.634   0.1350097656  0.80466     2984.00000 0.8767       1.232865       0.123284
  66.148   0.1350097656  0.76801     2984.50000 0.8681       1.318733       0.131871
  47.637   0.1396484375  0.80753     2979.50000 0.9389       0.610734       0.061073
  52.852   0.1396484375  0.81500     2980.00000 0.9376       0.624272       0.062427
  58.277   0.1396484375  0.82014     2980.50000 0.9352       0.647763       0.064775
  63.202   0.1396484375  0.82390     2981.00000 0.9311       0.689188       0.068915
  66.989   0.1396484375  0.82653     2981.50000 0.9248       0.751632       0.075158
  69.348   0.1396484375  0.82812     2982.00000 0.9166       0.833958       0.083390
  70.347   0.1396484375  0.82886     2982.50000 0.9068       0.932134       0.093208
  70.261   0.1396484375  0.82890     2983.00000 0.8960       1.040170       0.104013
  69.417   0.1396484375  0.82774     2983.50000 0.8850       1.150533       0.115050
  68.100   0.1396484375  0.82209     2984.00000 0.8746       1.254512       0.125448
  66.535   0.1396484375  0.80153     2984.50000 0.8657       1.342889       0.134285
  64.892   0.1396484375  0.76192     2985.00000 0.8593       1.407058       0.140701
  50.482   0.1442871094  0.83052     2979.50000 0.9448       0.551868       0.055186
  55.699   0.1442871094  0.83029     2980.00000 0.9423       0.577073       0.057707
  60.978   0.1442871094  0.82931     2980.50000 0.9388       0.611805       0.061179
  65.589   0.1442871094  0.82821     2981.00000 0.9336       0.664047       0.066401
  68.947   0.1442871094  0.82732     2981.50000 0.9263       0.736994       0.073694
  70.850   0.1442871094  0.82669     2982.00000 0.9170       0.829665       0.082960
  71.443   0.1442871094  0.82628     2982.50000 0.9062       0.938002       0.093795
  71.041   0.1442871094  0.82602     2983.00000 0.8944       1.055580       0.105553
  69.975   0.1442871094  0.82559     2983.50000 0.8826       1.174007       0.117397
  68.521   0.1442871094  0.82370     2984.00000 0.8717       1.283536       0.128350
  66.884   0.1442871094  0.81566     2984.50000 0.8626       1.374142       0.137410
  65.218   0.1442871094  0.79002     2985.00000 0.8563       1.436998       0.143694
  53.488   0.1489257812  0.88405     2979.50000 0.9499       0.500801       0.050079
  58.550   0.1489257812  0.88172     2980.00000 0.9464       0.535815       0.053582
  63.584   0.1489257812  0.87839     2980.50000 0.9420       0.579984       0.057997
  67.835   0.1489257812  0.87492     2981.00000 0.9358       0.641686       0.064165
  70.757   0.1489257812  0.87205     2981.50000 0.9275       0.724580       0.072452
  72.220   0.1489257812  0.87013     2982.00000 0.9172       0.828031       0.082796
  72.430   0.1489257812  0.86911     2982.50000 0.9052       0.947896       0.094783
  71.734   0.1489257812  0.86875     2983.00000 0.8923       1.076940       0.107688
  70.466   0.1489257812  0.86866     2983.50000 0.8795       1.205268       0.120522
  68.889   0.1489257812  0.86809     2984.00000 0.8679       1.321372       0.132133
  67.186   0.1489257812  0.86505     2984.50000 0.8586       1.413924       0.141387
  65.493   0.1489257812  0.85369     2985.00000 0.8526       1.473836       0.147377
  63.925   0.1489257812  0.82275     2985.50000 0.8504       1.496072       0.149596
  62.613   0.1489257812  0.77666     2986.00000 0.8519       1.481077       0.148090
  52.544   0.1535644531  0.85555     2979.00000 0.9590       0.410117       0.041007
  56.596   0.1535644531  0.85541     2979.50000 0.9543       0.456644       0.045663
  61.330   0.1535644531  0.85352     2980.00000 0.9501       0.499330       0.049933
  66.040   0.1535644531  0.85025     2980.50000 0.9449       0.550857       0.055084
  73.468   0.1535644531  0.84046     2982.00000 0.9172       0.827612       0.082753
  73.320   0.1535644531  0.83908     2982.50000 0.9039       0.960984       0.096091
  72.350   0.1535644531  0.83857     2983.00000 0.8896       1.104396       0.110433
  70.895   0.1535644531  0.83849     2983.50000 0.8755       1.245505       0.124545
  69.203   0.1535644531  0.83826     2984.00000 0.8630       1.369831       0.136978
  67.437   0.1535644531  0.83695     2984.50000 0.8536       1.463908       0.146385
  65.710   0.1535644531  0.83231     2985.00000 0.8482       1.518446       0.151836
  64.125   0.1535644531  0.81808     2985.50000 0.8470       1.530148       0.153002
  62.809   0.1535644531  0.78361     2986.00000 0.8498       1.502163       0.150197
  56.476   0.1582031250  0.85518     2979.00000 0.9634       0.365626       0.036558
  59.721   0.1582031250  0.85601     2979.50000 0.9581       0.418680       0.041867
  72.905   0.1582031250  0.84050     2983.00000 0.8862       1.138008       0.113793
  71.273   0.1582031250  0.83983     2983.50000 0.8704       1.296231       0.129616
  69.471   0.1582031250  0.83912     2984.00000 0.8569       1.431294       0.143123
  67.636   0.1582031250  0.83784     2984.50000 0.8474       1.526118       0.152604
  65.864   0.1582031250  0.83511     2985.00000 0.8429       1.571519       0.157142
  64.248   0.1582031250  0.82852     2985.50000 0.8432       1.567659       0.156752
  62.911   0.1582031250  0.81124     2986.00000 0.8478       1.522102       0.152189
  60.701   0.1628417969  0.79508     2979.00000 0.9671       0.329244       0.032921
  62.756   0.1628417969  0.79677     2979.50000 0.9614       0.386271       0.038627
  71.616   0.1628417969  0.78508     2983.50000 0.8641       1.359367       0.135928
  69.701   0.1628417969  0.78332     2984.00000 0.8491       1.508961       0.150888
  67.789   0.1628417969  0.78156     2984.50000 0.8397       1.603022       0.160293
  65.956   0.1628417969  0.77953     2985.00000 0.8367       1.633369       0.163325
  64.289   0.1628417969  0.77624     2985.50000 0.8393       1.607020       0.160686
  62.915   0.1628417969  0.76895     2986.00000 0.8462       1.538625       0.153840
  69.905   0.1674804688  0.75889     2984.00000 0.8393       1.607234       0.160714
  67.901   0.1674804688  0.75683     2984.50000 0.8303       1.697594       0.169749
  65.984   0.1674804688  0.75452     2985.00000 0.8297       1.703537       0.170340
  64.242   0.1674804688  0.75093     2985.50000 0.8355       1.645459       0.164528
  13.992   0.1767578125  0.75420     1563.00000 0.9318       0.681971       0.068189
 111.663   0.3762207031  0.75217      496.00000 0.9747       0.252898       0.025289
 111.172   0.3808593750  0.82201      496.00000 0.9744       0.255673       0.025567
 110.727   0.3854980469  0.82924      496.00000 0.9742       0.258334       0.025833
 110.323   0.3901367188  0.83507      496.00000 0.9739       0.260886       0.026088
 109.956   0.3947753906  0.83948      496.00000 0.9737       0.263336       0.026334
 109.624   0.3994140625  0.84241      496.00000 0.9734       0.265690       0.026569
 109.323   0.4040527344  0.84369      496.00000 0.9732       0.267954       0.026795
  91.670   0.4086914062  0.76419      495.50000 0.9228       0.772461       0.077246
 109.052   0.4086914062  0.84302      496.00000 0.9730       0.270136       0.027014
  91.551   0.4133300781  0.76085      495.50000 0.9209       0.790509       0.079050
 108.808   0.4133300781  0.83991      496.00000 0.9728       0.272241       0.027224
  49.450   0.4133300781  0.75019      613.00000 0.7722       2.278221       0.227800
  91.438   0.4179687500  0.82155      495.50000 0.9191       0.808837       0.080883
 108.589   0.4179687500  0.83207      496.00000 0.9726       0.274276       0.027427
  49.770   0.4179687500  0.75513      613.00000 0.7662       2.338142       0.233793
  91.332   0.4226074219  0.81015      495.50000 0.9173       0.827454       0.082745
  50.081   0.4226074219  0.77240      613.00000 0.7601       2.399600       0.239940
  91.231   0.4272460938  0.79291      495.50000 0.9154       0.846370       0.084636
  50.384   0.4272460938  0.78747      613.00000 0.7538       2.462586       0.246240
  91.136   0.4318847656  0.77011      495.50000 0.9134       0.865591       0.086558
  50.678   0.4318847656  0.79990      613.00000 0.7473       2.527090       0.252691
  50.964   0.4365234375  0.80971      613.00000 0.7407       2.593101       0.259293
  51.242   0.4411621094  0.81725      613.00000 0.7340       2.660609       0.266045
 -52.109   0.4411621094  0.75188      880.00000 0.9773       0.227338       0.022733
  51.512   0.4458007812  0.82302      613.00000 0.7271       2.729607       0.272946
 -54.396   0.4458007812  0.75614      880.00000 0.9755       0.244741       0.024473
  51.774   0.4504394531  0.82752      613.00000 0.7200       2.800084       0.279994
 -56.477   0.4504394531  0.75910      880.00000 0.9737       0.262786       0.026277
  90.728   0.4550781250  0.77290      495.50000 0.9033       0.966541       0.096653
  52.029   0.4550781250  0.83118      613.00000 0.7128       2.872030       0.287190
 -58.380   0.4550781250  0.76083      880.00000 0.9719       0.281450       0.028143
  90.659   0.4597167969  0.79622      495.50000 0.9012       0.987742       0.098772
  52.277   0.4597167969  0.83433      613.00000 0.7055       2.945437       0.294531
  90.593   0.4643554688  0.79974      495.50000 0.8991       1.009292       0.100927
-102.432   0.4643554688  0.88039      496.50000 0.9402       0.598183       0.059813
  52.517   0.4643554688  0.82057      613.00000 0.6980       3.020295       0.302018
  90.530   0.4689941406  0.81559      495.50000 0.8969       1.031195       0.103117
-102.111   0.4689941406  0.88046      496.50000 0.9379       0.621111       0.062105
  52.751   0.4689941406  0.82354      613.00000 0.6904       3.096594       0.309649
  90.470   0.4736328125  0.82735      495.50000 0.8947       1.053456       0.105343
-101.809   0.4736328125  0.88039      496.50000 0.9355       0.644622       0.064455
  52.977   0.4736328125  0.82645      613.00000 0.6826       3.174324       0.317422
-101.799   0.4736328125  0.76435     1857.00000 0.8273       1.726693       0.172667
  68.243   0.4782714844  0.76144      155.00000 0.9229       0.771260       0.077126
  90.414   0.4782714844  0.83604      495.50000 0.8924       1.076078       0.107605
-101.526   0.4782714844  0.88020      496.50000 0.9331       0.668709       0.066863
  53.198   0.4782714844  0.82938      613.00000 0.6747       3.253478       0.325338
-101.713   0.4782714844  0.76643     1857.00000 0.8238       1.762390       0.176237
  68.372   0.4829101562  0.77195      155.00000 0.9207       0.792881       0.079288
  90.360   0.4829101562  0.84246      495.50000 0.8901       1.099063       0.109904
-101.261   0.4829101562  0.87986      496.50000 0.9307       0.693363       0.069328
  53.412   0.4829101562  0.83234      613.00000 0.6666       3.334043       0.333396
-101.629   0.4829101562  0.76843     1857.00000 0.8202       1.798470       0.179845
  68.498   0.4875488281  0.77904      155.00000 0.9185       0.814915       0.081491
  90.309   0.4875488281  0.84719      495.50000 0.8878       1.122416       0.112239
-101.012   0.4875488281  0.87937      496.50000 0.9282       0.718580       0.071849
  53.619   0.4875488281  0.83534      613.00000 0.6584       3.416011       0.341593
-101.548   0.4875488281  0.77034     1857.00000 0.8165       1.834933       0.183491
  68.620   0.4921875000  0.78426      155.00000 0.9163       0.837357       0.083736
-100.778   0.4921875000  0.87871      496.50000 0.9256       0.744352       0.074425
  53.821   0.4921875000  0.83837      613.00000 0.6501       3.499370       0.349930
-101.468   0.4921875000  0.77218     1857.00000 0.8128       1.871779       0.187175
  68.738   0.4968261719  0.78835      155.00000 0.9140       0.860204       0.086020
  54.018   0.4968261719  0.84143      613.00000 0.6416       3.584111       0.358405
-101.389   0.4968261719  0.77394     1857.00000 0.8091       1.909004       0.190898
  68.854   0.5014648438  0.79171      155.00000 0.9117       0.883450       0.088345
  54.208   0.5014648438  0.84450      613.00000 0.6330       3.670223       0.367017
-101.313   0.5014648438  0.77562     1857.00000 0.8053       1.946608       0.194658
2009  10 21 27 58 350
 -83.737   0.2463378906  0.78061      266.50000 0.9424       0.576386       0.057636
 -85.376   0.2509765625  0.76685      266.00000 0.9563       0.436976       0.043698
 -83.012   0.2509765625  0.82603      266.50000 0.9426       0.574021       0.057400
 -84.570   0.2556152344  0.76206      266.00000 0.9570       0.429599       0.042960
 -82.305   0.2556152344  0.82023      266.50000 0.9428       0.571647       0.057162
 -83.771   0.2602539062  0.75446      266.00000 0.9578       0.422473       0.042247
 -81.617   0.2602539062  0.81125      266.50000 0.9431       0.569265       0.056924
 -82.981   0.2648925781  0.78907      266.00000 0.9584       0.415610       0.041561
 -80.948   0.2648925781  0.82274      266.50000 0.9433       0.566875       0.056685
-118.314   0.2648925781  0.92198      588.50000 0.8789       1.211420       0.121123
 -82.200   0.2695312500  0.77023      266.00000 0.9591       0.409016       0.040902
 -80.297   0.2695312500  0.80178      266.50000 0.9436       0.564477       0.056445
-118.032   0.2695312500  0.91787      588.50000 0.8789       1.211019       0.121085
 -79.663   0.2741699219  0.77329      266.50000 0.9438       0.562065       0.056204
-117.733   0.2741699219  0.91323      588.50000 0.8790       1.210204       0.121005
-119.386   0.2741699219  0.92388      589.00000 0.8577       1.423364       0.142316
-117.418   0.2788085938  0.90808      588.50000 0.8791       1.209057       0.120891
-119.221   0.2788085938  0.91914      589.00000 0.8575       1.425070       0.142489
-117.087   0.2834472656  0.90843      588.50000 0.8792       1.207645       0.120752
-119.033   0.2834472656  0.92426      589.00000 0.8574       1.426368       0.142620
-116.742   0.2880859375  0.90191      588.50000 0.8794       1.206031       0.120591
-118.821   0.2880859375  0.91808      589.00000 0.8573       1.427367       0.142722
-122.300   0.2880859375  0.93510      589.50000 0.8213       1.787633       0.178739
-116.384   0.2927246094  0.89470      588.50000 0.8796       1.204267       0.120416
-118.585   0.2927246094  0.91112      589.00000 0.8572       1.428163       0.142803
-122.341   0.2927246094  0.92827      589.50000 0.8205       1.795026       0.179481
-116.014   0.2973632812  0.88668      588.50000 0.8798       1.202399       0.120230
-118.327   0.2973632812  0.90325      589.00000 0.8571       1.428842       0.142872
-122.354   0.2973632812  0.92042      589.50000 0.8198       1.802048       0.180186
-115.633   0.3020019531  0.88715      588.50000 0.8800       1.200464       0.120038
-118.047   0.3020019531  0.90565      589.00000 0.8571       1.429477       0.142937
-122.338   0.3020019531  0.92187      589.50000 0.8191       1.808836       0.180867
-115.245   0.3066406250  0.87624      588.50000 0.8802       1.198494       0.119842
-117.746   0.3066406250  0.89460      589.00000 0.8570       1.430129       0.143004
-122.294   0.3066406250  0.91069      589.50000 0.8185       1.815508       0.181537
-114.849   0.3112792969  0.86355      588.50000 0.8804       1.196515       0.119645
-117.427   0.3112792969  0.88161      589.00000 0.8569       1.430853       0.143077
-122.223   0.3112792969  0.89736      589.50000 0.8178       1.822175       0.182206
-114.447   0.3159179688  0.84850      588.50000 0.8806       1.194548       0.119448
-117.091   0.3159179688  0.86613      589.00000 0.8568       1.431691       0.143162
-122.125   0.3159179688  0.88131      589.50000 0.8171       1.828931       0.182884
-114.041   0.3205566406  0.83043      588.50000 0.8807       1.192609       0.119255
-116.740   0.3205566406  0.84746      589.00000 0.8567       1.432678       0.143261
-122.002   0.3205566406  0.86184      589.50000 0.8164       1.835858       0.183578
-116.375   0.3251953125  0.82932      589.00000 0.8566       1.433841       0.143378
-121.856   0.3251953125  0.84265      589.50000 0.8157       1.843023       0.184296
-115.998   0.3298339844  0.79975      589.00000 0.8565       1.435201       0.143515
-121.689   0.3298339844  0.81251      589.50000 0.8150       1.850482       0.185044
-115.612   0.3344726562  0.76523      589.00000 0.8563       1.436774       0.143673
-121.503   0.3344726562  0.77693      589.50000 0.8142       1.858281       0.185825
 164.742   0.4179687500  0.78072     1977.00000 0.8769       1.230719       0.123069
 -92.431   0.4226074219  0.76870      228.00000 0.9224       0.775983       0.077595
 164.609   0.4226074219  0.78321     1977.00000 0.8757       1.243363       0.124334
 -92.610   0.4272460938  0.79112      228.00000 0.9205       0.795009       0.079497
 164.483   0.4272460938  0.78481     1977.00000 0.8744       1.256304       0.125628
-144.538   0.4272460938  0.75702     2179.00000 0.7893       2.107191       0.210718
-144.409   0.4318847656  0.76360     2179.00000 0.7830       2.169555       0.216954
-144.282   0.4365234375  0.76968     2179.00000 0.7767       2.233113       0.223310
-144.158   0.4411621094  0.77531     2179.00000 0.7702       2.297868       0.229785
-144.036   0.4458007812  0.78051     2179.00000 0.7636       2.363816       0.236380
-143.918   0.4504394531  0.78534     2179.00000 0.7569       2.430957       0.243093
-143.802   0.4550781250  0.78982     2179.00000 0.7501       2.499286       0.249926
-143.688   0.4597167969  0.79398     2179.00000 0.7431       2.568802       0.256878
-143.578   0.4643554688  0.86426     2179.00000 0.7361       2.639498       0.263947
-143.470   0.4689941406  0.86832     2179.00000 0.7289       2.711372       0.271134
-143.365   0.4736328125  0.87211     2179.00000 0.7216       2.784417       0.278438
-143.263   0.4782714844  0.87565     2179.00000 0.7141       2.858628       0.285859
  78.652   0.4782714844  0.75259     3426.00000 0.9233       0.766778       0.076678
  78.721   0.4829101562  0.75656     3426.00000 0.9206       0.794043       0.079404
  78.787   0.4875488281  0.76016     3426.00000 0.9178       0.821676       0.082167
  78.851   0.4921875000  0.76343     3426.00000 0.9150       0.849676       0.084967
  78.913   0.4968261719  0.76640     3426.00000 0.9122       0.878040       0.087804
  78.973   0.5014648438  0.76910     3426.00000 0.9093       0.906767       0.090676
2009  10  1  5 28 350
  31.682   0.1350097656  0.80962     2742.50000 0.8298       1.701512       0.170150
  33.222   0.1396484375  0.80287     2742.50000 0.8244       1.755557       0.175554
  34.382   0.1442871094  0.83127     2742.50000 0.8212       1.788402       0.178837
   4.201   0.1489257812  0.75804     1132.50000 0.7507       2.493062       0.249294
  37.770   0.1489257812  0.82120     2742.00000 0.7843       2.157457       0.215746
  35.267   0.1489257812  0.82461     2742.50000 0.8198       1.801651       0.180161
  38.497   0.1535644531  0.78985     2742.00000 0.7819       2.180995       0.218099
  56.698   0.1535644531  0.75051     3228.00000 0.8019       1.981191       0.198112
  53.235   0.1721191406  0.75880     1153.00000 0.8747       1.253434       0.125334
  53.293   0.1767578125  0.78845     1153.00000 0.8743       1.256930       0.125684
  50.727   0.1767578125  0.82024     1153.50000 0.8789       1.211140       0.121104
  53.296   0.1813964844  0.77304     1153.00000 0.8737       1.262676       0.126258
  50.714   0.1813964844  0.80736     1153.50000 0.8786       1.213725       0.121361
  53.240   0.1860351562  0.79183     1153.00000 0.8730       1.270366       0.127026
  50.660   0.1860351562  0.81173     1153.50000 0.8782       1.218084       0.121796
 -33.029   0.1860351562  0.76216     2314.00000 0.8280       1.720044       0.172004
  53.127   0.1906738281  0.76950     1153.00000 0.8720       1.279677       0.127956
  50.572   0.1906738281  0.79101     1153.50000 0.8776       1.223853       0.122372
 -33.902   0.1906738281  0.76558     2313.50000 0.8311       1.688627       0.168851
 -33.080   0.1906738281  0.75169     2314.00000 0.8294       1.706193       0.170619
  52.960   0.1953125000  0.76039     1153.00000 0.8710       1.290288       0.129016
  50.458   0.1953125000  0.77291     1153.50000 0.8769       1.230663       0.123052
  48.015   0.1953125000  0.77382     1154.00000 0.8863       1.137534       0.113741
 -34.043   0.1953125000  0.81759     2313.50000 0.8334       1.666168       0.166605
 -33.091   0.1953125000  0.82060     2314.00000 0.8314       1.685945       0.168594
 -31.027   0.1953125000  0.78496     2314.50000 0.8279       1.721200       0.172115
 -34.147   0.1999511719  0.80535     2313.50000 0.8360       1.640499       0.164038
 -33.058   0.1999511719  0.80966     2314.00000 0.8340       1.660391       0.166039
 -34.210   0.2045898438  0.82903     2313.50000 0.8387       1.612787       0.161267
 -32.982   0.2045898438  0.84862     2314.00000 0.8369       1.630825       0.163082
 -34.231   0.2092285156  0.80049     2313.50000 0.8416       1.584107       0.158399
 -34.206   0.2138671875  0.78005     2313.50000 0.8445       1.555396       0.155528
-112.316   0.4318847656  0.77050     1334.00000 0.7053       2.947477       0.294748
-112.520   0.4365234375  0.78010     1334.00000 0.6988       3.011983       0.301198
-112.718   0.4411621094  0.78923     1334.00000 0.6922       3.078070       0.307807
-112.910   0.4458007812  0.79790     1334.00000 0.6854       3.145736       0.314573
-113.096   0.4504394531  0.80613     1334.00000 0.6785       3.214979       0.321497
-113.277   0.4550781250  0.81393     1334.00000 0.6714       3.285797       0.328579
-113.452   0.4597167969  0.82132     1334.00000 0.6642       3.358183       0.335817
-113.622   0.4643554688  0.81910     1334.00000 0.6568       3.432137       0.343212
-149.222   0.4643554688  0.75679     2542.50000 0.8234       1.765652       0.176554
-113.787   0.4689941406  0.82644     1334.00000 0.6492       3.507654       0.350764
-149.048   0.4689941406  0.76550     2542.50000 0.8187       1.813520       0.181340
-113.947   0.4736328125  0.83339     1334.00000 0.6415       3.584730       0.358471
-148.881   0.4736328125  0.77382     2542.50000 0.8138       1.862173       0.186204
-114.102   0.4782714844  0.83998     1334.00000 0.6337       3.663360       0.366334
-148.720   0.4782714844  0.78177     2542.50000 0.8089       1.911606       0.191147
-114.252   0.4829101562  0.84623     1334.00000 0.6256       3.743541       0.374351
-148.564   0.4829101562  0.78935     2542.50000 0.8038       1.961817       0.196167
-114.398   0.4875488281  0.85215     1334.00000 0.6175       3.825269       0.382523
-148.414   0.4875488281  0.79658     2542.50000 0.7987       2.012803       0.201265
-114.539   0.4921875000  0.85777     1334.00000 0.6092       3.908533       0.390849
-148.268   0.4921875000  0.80346     2542.50000 0.7936       2.064561       0.206440
-114.675   0.4968261719  0.86309     1334.00000 0.6007       3.993332       0.399328
-148.128   0.4968261719  0.81001     2542.50000 0.7883       2.117088       0.211692
-114.808   0.5014648438  0.86814     1334.00000 0.5920       4.079661       0.407961
-147.991   0.5014648438  0.81624     2542.50000 0.7830       2.170380       0.217020
2009  10 22 35 53 350
  12.739   0.1350097656  0.77771     1212.50000 0.9215       0.784735       0.078469
   1.704   0.1350097656  0.77912     1213.00000 0.9298       0.702226       0.070217
  11.083   0.1396484375  0.79337     1212.50000 0.9235       0.764640       0.076457
  -0.205   0.1396484375  0.79381     1213.00000 0.9321       0.679042       0.067894
   9.531   0.1442871094  0.79853     1212.50000 0.9251       0.749073       0.074898
-111.308   0.1489257812  0.81024     3303.00000 0.9085       0.915184       0.091516
-117.657   0.1489257812  0.80909     3303.50000 0.9184       0.815939       0.081593
-125.211   0.1489257812  0.80794     3304.00000 0.9213       0.786974       0.078696
-111.789   0.1535644531  0.87263     3303.00000 0.9094       0.905547       0.090551
-117.859   0.1535644531  0.87180     3303.50000 0.9186       0.814485       0.081447
-124.935   0.1535644531  0.87294     3304.00000 0.9212       0.788170       0.078815
-118.091   0.1582031250  0.89688     3303.50000 0.9192       0.808096       0.080808
-124.871   0.1582031250  0.90030     3304.00000 0.9217       0.782970       0.078294
-118.364   0.1628417969  0.90798     3303.50000 0.9202       0.797908       0.079789
-124.988   0.1628417969  0.91308     3304.00000 0.9227       0.772705       0.077267
-118.685   0.1674804688  0.91038     3303.50000 0.9215       0.784756       0.078473
-125.274   0.1674804688  0.91390     3304.00000 0.9242       0.758330       0.075829
-129.357   0.1674804688  0.91584     3304.50000 0.9193       0.807339       0.080722
  49.809   0.1721191406  0.79292     1036.50000 0.9373       0.627105       0.062710
-125.724   0.1721191406  0.91598     3304.00000 0.9259       0.740582       0.074054
-129.783   0.1721191406  0.91755     3304.50000 0.9214       0.786342       0.078622
  50.250   0.1767578125  0.82425     1036.50000 0.9418       0.581537       0.058153
  52.601   0.1767578125  0.76837     1041.50000 0.8433       1.566599       0.156654
  51.260   0.1767578125  0.76549     1042.00000 0.8187       1.813085       0.181305
-126.342   0.1767578125  0.91390     3304.00000 0.9280       0.720066       0.072003
  58.997   0.1813964844  0.82264     1036.00000 0.9672       0.328044       0.032804
  50.799   0.1813964844  0.82980     1036.50000 0.9459       0.540648       0.054065
  52.263   0.1813964844  0.80732     1041.50000 0.8418       1.582471       0.158241
  50.949   0.1813964844  0.80398     1042.00000 0.8172       1.827915       0.182788
-127.137   0.1813964844  0.90829     3304.00000 0.9303       0.697308       0.069727
  60.867   0.1860351562  0.82698     1036.00000 0.9711       0.288991       0.028899
  51.467   0.1860351562  0.83097     1036.50000 0.9496       0.503894       0.050389
  51.929   0.1860351562  0.81414     1041.50000 0.8399       1.601218       0.160115
-128.124   0.1860351562  0.90127     3304.00000 0.9327       0.672788       0.067275
  63.160   0.1906738281  0.83171     1036.00000 0.9746       0.254445       0.025444
  52.265   0.1906738281  0.83485     1036.50000 0.9529       0.470893       0.047089
-129.322   0.1906738281  0.89255     3304.00000 0.9353       0.646949       0.064691
  65.929   0.1953125000  0.83178     1036.00000 0.9776       0.224147       0.022415
-130.756   0.1953125000  0.88041     3304.00000 0.9380       0.620209       0.062017
-139.523   0.1999511719  0.80732     1034.00000 0.9283       0.717413       0.071735
 179.520   0.1999511719  0.82417     1035.50000 0.9863       0.137269       0.013726
  69.206   0.1999511719  0.82633     1036.00000 0.9802       0.197931       0.019793
-132.454   0.1999511719  0.86742     3304.00000 0.9407       0.592973       0.059294
-103.209   0.2045898438  0.75515      234.50000 0.8769       1.231343       0.123132
-138.952   0.2045898438  0.77922     1034.00000 0.9264       0.736366       0.073632
-143.307   0.2045898438  0.78129     1034.50000 0.9380       0.620186       0.062017
-173.145   0.2045898438  0.78415     1035.50000 0.9844       0.156194       0.015619
  72.983   0.2045898438  0.78725     1036.00000 0.9824       0.175674       0.017567
-134.453   0.2045898438  0.84864     3304.00000 0.9434       0.565628       0.056560
-103.575   0.2092285156  0.75999      234.50000 0.8817       1.182699       0.118267
-124.563   0.2092285156  0.82549     3303.50000 0.9388       0.612365       0.061233
-136.791   0.2092285156  0.82926     3304.00000 0.9461       0.538563       0.053853
-103.917   0.2138671875  0.76073      234.50000 0.8861       1.138825       0.113880
-109.583   0.2138671875  0.75198      235.00000 0.9023       0.977339       0.097726
-101.451   0.2138671875  0.76904     2155.50000 0.7316       2.684519       0.268418
-125.602   0.2138671875  0.79727     3303.50000 0.9407       0.592810       0.059277
-139.516   0.2138671875  0.80155     3304.00000 0.9488       0.512177       0.051215
-104.233   0.2185058594  0.76053      234.50000 0.8901       1.099121       0.109909
-110.045   0.2185058594  0.75062      235.00000 0.9059       0.941553       0.094148
-132.831   0.2185058594  0.75058     1033.50000 0.9212       0.788181       0.078810
-137.584   0.2185058594  0.75228     1034.00000 0.9216       0.784141       0.078412
-141.419   0.2185058594  0.75339     1034.50000 0.9321       0.679165       0.067916
-161.402   0.2185058594  0.75866     1035.50000 0.9794       0.205920       0.020592
  86.017   0.2185058594  0.82681     1036.00000 0.9869       0.130981       0.013098
-126.726   0.2185058594  0.76861     3303.50000 0.9426       0.573851       0.057381
-142.678   0.2185058594  0.77332     3304.00000 0.9513       0.486890       0.048686
-110.831   0.2231445312  0.75035     1032.00000 0.9285       0.714808       0.071474
-137.204   0.2231445312  0.76642     1034.00000 0.9202       0.798106       0.079809
-140.893   0.2231445312  0.76705     1034.50000 0.9304       0.696138       0.069614
-159.124   0.2231445312  0.78112     1035.50000 0.9781       0.218540       0.021854
  90.038   0.2231445312  0.78479     1036.00000 0.9878       0.122442       0.012244
-157.229   0.2277832031  0.82270     1035.50000 0.9771       0.228977       0.022897
  93.312   0.2277832031  0.82754     1036.00000 0.9884       0.116347       0.011635
-110.012   0.2324218750  0.77811     1031.50000 0.9162       0.838059       0.083806
-109.567   0.2324218750  0.81643     1032.00000 0.9313       0.687392       0.068733
-136.523   0.2324218750  0.82480     1034.00000 0.9175       0.824587       0.082458
-139.928   0.2324218750  0.82477     1034.50000 0.9273       0.727448       0.072745
-155.587   0.2324218750  0.83825     1035.50000 0.9763       0.237265       0.023726
  95.526   0.2324218750  0.84441     1036.00000 0.9888       0.112220       0.011222
-115.868   0.2370605469  0.78187     1031.00000 0.8868       1.131735       0.113171
-109.447   0.2370605469  0.81863     1031.50000 0.9182       0.817723       0.081772
-108.860   0.2370605469  0.82438     1032.00000 0.9327       0.672819       0.067275
-136.218   0.2370605469  0.82182     1034.00000 0.9163       0.837470       0.083746
-139.478   0.2370605469  0.82329     1034.50000 0.9258       0.742170       0.074217
 -98.690   0.2370605469  0.77488     2155.00000 0.8286       1.714376       0.171426
-115.617   0.2416992188  0.78880     1031.00000 0.8896       1.103788       0.110376
-108.824   0.2416992188  0.82093     1031.50000 0.9203       0.797183       0.079718
-108.106   0.2416992188  0.82428     1032.00000 0.9342       0.657993       0.065793
-135.935   0.2416992188  0.81976     1034.00000 0.9150       0.850303       0.085030
-139.047   0.2416992188  0.82013     1034.50000 0.9244       0.756485       0.075648
 -98.331   0.2416992188  0.78180     2155.00000 0.8349       1.651236       0.165114
-115.330   0.2463378906  0.77639     1031.00000 0.8924       1.076259       0.107624
-108.148   0.2463378906  0.80269     1031.50000 0.9223       0.776690       0.077669
-107.309   0.2463378906  0.80341     1032.00000 0.9357       0.643087       0.064302
-135.674   0.2463378906  0.80264     1034.00000 0.9137       0.863194       0.086319
-138.634   0.2463378906  0.80203     1034.50000 0.9229       0.770526       0.077051
 -97.946   0.2463378906  0.75341     2155.00000 0.8406       1.594400       0.159431
-114.663   0.2556152344  0.75857     1031.00000 0.8977       1.023440       0.102342
-106.646   0.2556152344  0.76015     1031.50000 0.9263       0.736512       0.073651
-105.591   0.2556152344  0.75771     1032.00000 0.9387       0.613501       0.061344
-135.219   0.2556152344  0.75680     1034.00000 0.9111       0.889460       0.088946
-137.858   0.2556152344  0.76571     1034.50000 0.9202       0.798204       0.079818
 -97.096   0.2556152344  0.77668     2155.00000 0.8503       1.497135       0.149707
-122.375   0.2602539062  0.76503     1030.50000 0.8593       1.407518       0.140748
-114.293   0.2602539062  0.78800     1031.00000 0.9002       0.998442       0.099842
-105.825   0.2602539062  0.78850     1031.50000 0.9283       0.717047       0.071705
-104.672   0.2602539062  0.78542     1032.00000 0.9401       0.598981       0.059892
-135.025   0.2602539062  0.78140     1034.00000 0.9097       0.902941       0.090294
-137.497   0.2602539062  0.79093     1034.50000 0.9188       0.811994       0.081196
 -96.634   0.2602539062  0.79395     2155.00000 0.8544       1.455569       0.145551
-113.902   0.2648925781  0.79390     1031.00000 0.9026       0.974488       0.097446
-104.958   0.2648925781  0.79369     1031.50000 0.9302       0.698088       0.069809
-103.713   0.2648925781  0.79077     1032.00000 0.9415       0.584713       0.058465
-134.854   0.2648925781  0.79491     1034.00000 0.9083       0.916699       0.091670
-137.154   0.2648925781  0.81200     1034.50000 0.9174       0.825826       0.082579
 -94.737   0.2648925781  0.79167     2154.50000 0.8881       1.119133       0.111906
 -96.147   0.2648925781  0.79637     2155.00000 0.8582       1.418050       0.141800
-113.494   0.2695312500  0.80083     1031.00000 0.9048       0.951605       0.095158
-104.047   0.2695312500  0.80052     1031.50000 0.9320       0.679673       0.067967
