 -41.232   0.2277832031  0.93004     2944.00000 0.9043       0.956946       0.095693
 -42.531   0.2277832031  0.92757     2944.50000 0.9167       0.832924       0.083292
 -44.422   0.2277832031  0.87581     2945.00000 0.9273       0.726937       0.072694
 -46.165   0.2277832031  0.80338     2945.50000 0.9336       0.664243       0.066424
 -40.540   0.2324218750  0.92894     2944.00000 0.9049       0.950564       0.095055
 -42.021   0.2324218750  0.92425     2944.50000 0.9172       0.828271       0.082827
 -44.216   0.2324218750  0.86568     2945.00000 0.9278       0.721951       0.072195
 -46.328   0.2324218750  0.79174     2945.50000 0.9342       0.658230       0.065823
 -39.817   0.2370605469  0.94095     2944.00000 0.9054       0.946155       0.094614
 -41.493   0.2370605469  0.94659     2944.50000 0.9175       0.825283       0.082528
 -44.011   0.2370605469  0.92469     2945.00000 0.9282       0.718219       0.071822
 -46.519   0.2370605469  0.84917     2945.50000 0.9347       0.653059       0.065306
 -47.827   0.2370605469  0.76708     2946.00000 0.9360       0.639782       0.063978
 -39.067   0.2416992188  0.93447     2944.00000 0.9056       0.943685       0.094367
 -40.948   0.2416992188  0.93997     2944.50000 0.9176       0.823938       0.082394
 -43.813   0.2416992188  0.91214     2945.00000 0.9284       0.715719       0.071572
 -46.742   0.2416992188  0.83286     2945.50000 0.9351       0.648698       0.064869
 -48.381   0.2416992188  0.75050     2946.00000 0.9366       0.633857       0.063385
 -38.294   0.2463378906  0.92309     2944.00000 0.9057       0.943095       0.094308
 -40.391   0.2463378906  0.92833     2944.50000 0.9176       0.824199       0.082420
 -43.623   0.2463378906  0.89164     2945.00000 0.9286       0.714414       0.071441
 -46.999   0.2463378906  0.81190     2945.50000 0.9355       0.645103       0.064510
 -37.502   0.2509765625  0.90772     2944.00000 0.9056       0.944308       0.094430
 -39.824   0.2509765625  0.91120     2944.50000 0.9174       0.826018       0.082602
 -43.445   0.2509765625  0.90810     2945.00000 0.9286       0.714259       0.071426
 -47.292   0.2509765625  0.85187     2945.50000 0.9358       0.642224       0.064222
 -49.634   0.2509765625  0.77128     2946.00000 0.9377       0.623245       0.062323
 -36.694   0.2556152344  0.86872     2944.00000 0.9053       0.947235       0.094723
 -39.252   0.2556152344  0.87202     2944.50000 0.9171       0.829333       0.082933
 -43.280   0.2556152344  0.86841     2945.00000 0.9285       0.715200       0.071519
 -47.622   0.2556152344  0.79842     2945.50000 0.9360       0.640005       0.063999
 -35.874   0.2602539062  0.80458     2944.00000 0.9048       0.951771       0.095177
 -38.675   0.2602539062  0.80749     2944.50000 0.9166       0.834076       0.083408
 -43.131   0.2602539062  0.80341     2945.00000 0.9283       0.717180       0.071717
-133.341   0.2788085938  0.80815     2831.00000 0.6624       3.375957       0.337596
  14.746   0.2834472656  0.75150     2695.00000 0.9048       0.951870       0.095186
-133.461   0.2834472656  0.82265     2831.00000 0.6645       3.354538       0.335454
  14.261   0.2880859375  0.75132     2695.00000 0.9049       0.951212       0.095121
 -51.043   0.2880859375  0.75935     2945.50000 0.9362       0.638043       0.063799
  13.806   0.2927246094  0.75143     2695.00000 0.9049       0.951342       0.095134
 -28.533   0.2927246094  0.76359     2943.50000 0.8941       1.058839       0.105878
 -30.088   0.2927246094  0.76391     2944.00000 0.8982       1.018269       0.101826
 -42.677   0.2927246094  0.76907     2945.00000 0.9245       0.754886       0.075482
 -51.687   0.2927246094  0.79992     2945.50000 0.9361       0.639035       0.063897
  13.381   0.2973632812  0.75151     2695.00000 0.9048       0.952267       0.095226
-133.525   0.2973632812  0.81748     2831.50000 0.8051       1.949595       0.194940
 -27.696   0.2973632812  0.77915     2943.50000 0.8933       1.066981       0.106693
 -42.708   0.2973632812  0.78574     2945.00000 0.9237       0.762924       0.076284
 -52.369   0.2973632812  0.83373     2945.50000 0.9360       0.640196       0.064012
  12.985   0.3020019531  0.86002     2695.00000 0.9046       0.953992       0.095399
-133.569   0.3020019531  0.81711     2831.50000 0.8048       1.952664       0.195246
  12.619   0.3066406250  0.85374     2695.00000 0.9043       0.956517       0.095652
-133.604   0.3066406250  0.81094     2831.50000 0.8045       1.955143       0.195492
  12.282   0.3112792969  0.84584     2695.00000 0.9040       0.959839       0.095984
-133.631   0.3112792969  0.80381     2831.50000 0.8043       1.957451       0.195721
  11.974   0.3159179688  0.83594     2695.00000 0.9036       0.963952       0.096395
  11.693   0.3205566406  0.82360     2695.00000 0.9031       0.968846       0.096885
  11.439   0.3251953125  0.81489     2695.00000 0.9025       0.974510       0.097451
 -49.414   0.3251953125  0.79912     2948.00000 0.9262       0.738415       0.073836
  11.210   0.3298339844  0.79423     2695.00000 0.9019       0.980933       0.098093
 -49.607   0.3298339844  0.78929     2948.00000 0.9264       0.736181       0.073613
  11.005   0.3344726562  0.76890     2695.00000 0.9012       0.988101       0.098810
 -49.782   0.3344726562  0.77823     2948.00000 0.9266       0.734320       0.073426
 -49.940   0.3391113281  0.76638     2948.00000 0.9267       0.732827       0.073277
 -50.081   0.3437500000  0.75402     2948.00000 0.9268       0.731698       0.073164
 -50.206   0.3483886719  0.75479     2948.00000 0.9269       0.730929       0.073087
  78.870   0.3994140625  0.75014      933.00000 0.9232       0.767909       0.076789
  78.846   0.4040527344  0.75356      933.00000 0.9221       0.779278       0.077926
  78.826   0.4086914062  0.75591      933.00000 0.9209       0.791394       0.079138
  78.810   0.4133300781  0.75734      933.00000 0.9196       0.804235       0.080422
  78.799   0.4179687500  0.77923      933.00000 0.9182       0.817779       0.081776
  39.715   0.4179687500  0.76485     2033.50000 0.8215       1.784673       0.178464
  78.790   0.4226074219  0.77589      933.00000 0.9168       0.832006       0.083199
  39.766   0.4226074219  0.76573     2033.50000 0.8179       1.821376       0.182134
  78.785   0.4272460938  0.77245      933.00000 0.9153       0.846894       0.084687
  39.817   0.4272460938  0.76618     2033.50000 0.8142       1.858532       0.185850
  78.783   0.4318847656  0.76901      933.00000 0.9138       0.862424       0.086240
  39.869   0.4318847656  0.76621     2033.50000 0.8104       1.896149       0.189611
  78.783   0.4365234375  0.76565      933.00000 0.9121       0.878577       0.087855
  39.921   0.4365234375  0.76584     2033.50000 0.8066       1.934237       0.193420
  78.786   0.4411621094  0.76248      933.00000 0.9105       0.895332       0.089531
  78.791   0.4458007812  0.75956      933.00000 0.9087       0.912672       0.091265
  78.798   0.4504394531  0.75695      933.00000 0.9069       0.930580       0.093056
  78.807   0.4550781250  0.75471      933.00000 0.9051       0.949038       0.094901
  69.767   0.4550781250  0.75117     2396.00000 0.7214       2.785921       0.278579
  78.818   0.4597167969  0.75286      933.00000 0.9032       0.968030       0.096800
  69.817   0.4597167969  0.75970     2396.00000 0.7155       2.845220       0.284508
  94.078   0.4643554688  0.79659      536.00000 0.9256       0.744106       0.074406
  78.830   0.4643554688  0.78352      933.00000 0.9012       0.987538       0.098751
  94.266   0.4689941406  0.80204      536.00000 0.9233       0.767372       0.076733
  78.844   0.4689941406  0.78039      933.00000 0.8992       1.007547       0.100752
  78.838   0.4689941406  0.75951     1103.50000 0.8605       1.395332       0.139531
  69.906   0.4689941406  0.75434     2396.00000 0.7034       2.965889       0.296575
  94.439   0.4736328125  0.80720      536.00000 0.9209       0.790914       0.079087
  78.777   0.4736328125  0.77007     1103.50000 0.8584       1.416190       0.141616
  69.946   0.4736328125  0.76255     2396.00000 0.6973       3.027249       0.302711
  78.713   0.4782714844  0.77975     1103.50000 0.8563       1.437495       0.143746
  69.982   0.4782714844  0.77045     2396.00000 0.6911       3.089288       0.308914
  78.139   0.4782714844  0.75280     2400.50000 0.7533       2.467449       0.246744
  78.646   0.4829101562  0.78864     1103.50000 0.8541       1.459238       0.145921
  70.609   0.4829101562  0.86530     2391.50000 0.8995       1.004936       0.100492
  70.016   0.4829101562  0.77805     2396.00000 0.6848       3.151996       0.315185
  77.906   0.4829101562  0.75978     2400.50000 0.7452       2.548008       0.254800
  78.575   0.4875488281  0.79683     1103.50000 0.8519       1.481414       0.148138
  70.718   0.4875488281  0.87028     2391.50000 0.8966       1.034061       0.103404
  70.048   0.4875488281  0.78535     2396.00000 0.6785       3.215369       0.321522
  77.685   0.4875488281  0.76608     2400.50000 0.7370       2.629899       0.262989
  78.502   0.4921875000  0.80439     1103.50000 0.8496       1.504015       0.150398
  70.821   0.4921875000  0.87503     2391.50000 0.8936       1.063736       0.106371
  70.077   0.4921875000  0.79236     2396.00000 0.6721       3.279399       0.327925
  77.474   0.4921875000  0.77175     2400.50000 0.7287       2.713113       0.271310
-177.677   0.4968261719  0.75806      359.00000 0.8974       1.026389       0.102634
  78.426   0.4968261719  0.81139     1103.50000 0.8473       1.527034       0.152700
  70.917   0.4968261719  0.87955     2391.50000 0.8906       1.093956       0.109393
  70.103   0.4968261719  0.79907     2396.00000 0.6656       3.344079       0.334393
  77.273   0.4968261719  0.77682     2400.50000 0.7202       2.797639       0.279763
-177.858   0.5014648438  0.76686      359.00000 0.8941       1.059077       0.105902
  78.348   0.5014648438  0.81787     1103.50000 0.8450       1.550464       0.155043
  71.008   0.5014648438  0.88386     2391.50000 0.8875       1.124716       0.112469
  70.127   0.5014648438  0.80551     2396.00000 0.6591       3.409402       0.340925
  77.080   0.5014648438  0.78135     2400.50000 0.7117       2.883470       0.288345
2009  27 14 40 43 350
  84.386   0.1489257812  0.79966     2333.50000 0.5872       4.127849       0.412778
  83.679   0.1535644531  0.77142     2333.50000 0.6002       3.998847       0.399840
  40.985   0.1628417969  0.84434     2132.00000 0.8406       1.593681       0.159355
  43.687   0.1628417969  0.81327     2132.50000 0.8237       1.763519       0.176329
  70.037   0.4040527344  0.75527     2538.50000 0.8795       1.204712       0.120468
  26.108   0.4086914062  0.81678     1214.50000 0.8308       1.691966       0.169171
  70.203   0.4086914062  0.76156     2538.50000 0.8760       1.239625       0.123959
  25.887   0.4133300781  0.82335     1214.50000 0.8259       1.741233       0.174097
  70.354   0.4133300781  0.76759     2538.50000 0.8725       1.275066       0.127503
  70.489   0.4179687500  0.83546     2538.50000 0.8689       1.311037       0.131100
  70.611   0.4226074219  0.84024     2538.50000 0.8653       1.347536       0.134750
  70.719   0.4272460938  0.84480     2538.50000 0.8615       1.384566       0.138452
  70.816   0.4318847656  0.84917     2538.50000 0.8578       1.422128       0.142208
  70.901   0.4365234375  0.85334     2538.50000 0.8540       1.460226       0.146018
  70.975   0.4411621094  0.85735     2538.50000 0.8501       1.498860       0.149881
  71.039   0.4458007812  0.86119     2538.50000 0.8462       1.538033       0.153798
  71.095   0.4504394531  0.86488     2538.50000 0.8422       1.577748       0.157769
  71.141   0.4550781250  0.86842     2538.50000 0.8382       1.618009       0.161795
  71.180   0.4597167969  0.87182     2538.50000 0.8341       1.658818       0.165876
 -19.840   0.4643554688  0.77612      166.50000 0.9155       0.845407       0.084532
  71.212   0.4643554688  0.86689     2538.50000 0.8300       1.700178       0.170012
 -19.894   0.4689941406  0.77446      166.50000 0.9160       0.840500       0.084042
  71.237   0.4689941406  0.87020     2538.50000 0.8258       1.742094       0.174203
 -19.952   0.4736328125  0.77280      166.50000 0.9164       0.835595       0.083551
  71.255   0.4736328125  0.87338     2538.50000 0.8216       1.784567       0.178450
 -20.012   0.4782714844  0.77112      166.50000 0.9169       0.830692       0.083061
  71.268   0.4782714844  0.87644     2538.50000 0.8172       1.827600       0.182753
  -5.177   0.5014648438  0.81061      166.00000 0.9325       0.675261       0.067517
2009  27 15 48 38 350
  68.336   0.1350097656  0.75485      451.50000 0.6675       3.325286       0.332520
  68.485   0.1396484375  0.77142      451.50000 0.7017       2.983407       0.298328
  68.606   0.1442871094  0.78643      451.50000 0.7298       2.702132       0.270198
  68.697   0.1489257812  0.82035      451.50000 0.7534       2.466434       0.246627
  -7.256   0.1674804688  0.77214     2632.50000 0.8532       1.468089       0.146809
 -10.361   0.1721191406  0.80329     2632.50000 0.8569       1.431002       0.143100
 -13.132   0.1767578125  0.83018     2632.50000 0.8598       1.402248       0.140225
   1.909   0.1767578125  0.75728     3978.00000 0.8841       1.158751       0.115869
 -11.979   0.1813964844  0.84795     2632.00000 0.8826       1.173984       0.117383
 -15.600   0.1813964844  0.84855     2632.50000 0.8620       1.379822       0.137982
   2.798   0.1813964844  0.76017     3978.00000 0.8837       1.163518       0.116345
  67.890   0.1860351562  0.76357      451.50000 0.8566       1.434395       0.143433
  89.819   0.1860351562  0.75438      460.50000 0.9421       0.578833       0.057877
 -14.641   0.1860351562  0.85781     2632.00000 0.8844       1.155641       0.115553
 -17.790   0.1860351562  0.85809     2632.50000 0.8638       1.362310       0.136230
   4.303   0.1860351562  0.75176     3977.50000 0.8952       1.047637       0.104764
 -17.009   0.1906738281  0.85556     2632.00000 0.8859       1.140595       0.114052
 -19.724   0.1906738281  0.85400     2632.50000 0.8651       1.348692       0.134868
 -19.100   0.1953125000  0.83831     2632.00000 0.8872       1.128086       0.112804
 -20.930   0.1999511719  0.80926     2632.00000 0.8883       1.117519       0.111750
  54.400   0.2185058594  0.80540     2811.50000 0.8925       1.075285       0.107514
  54.932   0.2231445312  0.78789     2811.50000 0.8925       1.074894       0.107475
  55.444   0.2277832031  0.77007     2811.50000 0.8924       1.076018       0.107588
  56.906   0.2324218750  0.75883     2811.00000 0.8923       1.076949       0.107685
  55.929   0.2324218750  0.75114     2811.50000 0.8921       1.078655       0.107851
 -76.251   0.2695312500  0.76203     3354.00000 0.8776       1.223713       0.122358
 -77.030   0.2695312500  0.75540     3354.50000 0.9012       0.987909       0.098780
  36.630   0.3947753906  0.75183      792.00000 0.8724       1.276339       0.127634
  36.955   0.3994140625  0.75778      792.00000 0.8679       1.320701       0.132070
  37.265   0.4040527344  0.76287      792.00000 0.8634       1.366238       0.136624
  37.560   0.4086914062  0.76723      792.00000 0.8587       1.412934       0.141293
  37.841   0.4133300781  0.77098      792.00000 0.8539       1.460780       0.146078
  38.110   0.4179687500  0.78329      792.00000 0.8490       1.509760       0.150976
  38.365   0.4226074219  0.78587      792.00000 0.8440       1.559860       0.155986
  38.609   0.4272460938  0.78799      792.00000 0.8389       1.611067       0.161106
  38.841   0.4318847656  0.78969      792.00000 0.8337       1.663365       0.166336
  39.062   0.4365234375  0.79103      792.00000 0.8283       1.716739       0.171673
  56.463   0.4365234375  0.75057     1495.50000 0.7843       2.156657       0.215665
  39.272   0.4411621094  0.79206      792.00000 0.8229       1.771173       0.177116
  83.259   0.4411621094  0.75317      896.00000 0.4888       5.112307       0.511229
  56.454   0.4411621094  0.75417     1495.50000 0.7753       2.246581       0.224657
  39.473   0.4458007812  0.79280      792.00000 0.8173       1.826652       0.182664
  83.146   0.4458007812  0.76284      896.00000 0.4817       5.183461       0.518344
  56.447   0.4458007812  0.75765     1495.50000 0.7662       2.338217       0.233821
  39.665   0.4504394531  0.79331      792.00000 0.8117       1.883159       0.188314
  83.039   0.4504394531  0.77139      896.00000 0.4742       5.257764       0.525774
  56.441   0.4504394531  0.76101     1495.50000 0.7568       2.431569       0.243156
  39.847   0.4550781250  0.79359      792.00000 0.8059       1.940677       0.194065
  82.938   0.4550781250  0.77890      896.00000 0.4665       5.335181       0.533516
  56.436   0.4550781250  0.76426     1495.50000 0.7473       2.526647       0.252664
  40.021   0.4597167969  0.79369      792.00000 0.8001       1.999189       0.199916
  82.844   0.4597167969  0.78546      896.00000 0.4584       5.415678       0.541565
  56.430   0.4597167969  0.76739     1495.50000 0.7377       2.623455       0.262345
  82.754   0.4643554688  0.78868      896.00000 0.4501       5.499222       0.549919
  56.424   0.4643554688  0.76708     1495.50000 0.7278       2.722001       0.272200
  82.670   0.4689941406  0.79440      896.00000 0.4414       5.585786       0.558574
  56.418   0.4689941406  0.76982     1495.50000 0.7178       2.822292       0.282229
  82.590   0.4736328125  0.79939      896.00000 0.4325       5.675333       0.567528
  56.411   0.4736328125  0.77243     1495.50000 0.7076       2.924334       0.292433
  82.515   0.4782714844  0.80372      896.00000 0.4232       5.767841       0.576778
  56.403   0.4782714844  0.77490     1495.50000 0.6972       3.028132       0.302813
  82.444   0.4829101562  0.80747      896.00000 0.4137       5.863284       0.586321
  56.395   0.4829101562  0.77723     1495.50000 0.6866       3.133695       0.313369
  82.378   0.4875488281  0.81070      896.00000 0.4038       5.961631       0.596154
  56.386   0.4875488281  0.77942     1495.50000 0.6759       3.241024       0.324102
  82.314   0.4921875000  0.81347      896.00000 0.3937       6.062862       0.606275
  56.375   0.4921875000  0.78147     1495.50000 0.6650       3.350131       0.335013
  82.255   0.4968261719  0.81581      896.00000 0.3833       6.166954       0.616682
  56.364   0.4968261719  0.78338     1495.50000 0.6539       3.461017       0.346101
  82.199   0.5014648438  0.81777      896.00000 0.3726       6.273883       0.627373
  56.352   0.5014648438  0.78515     1495.50000 0.6426       3.573687       0.357368
2009  27 16 56 33 350
  88.239   0.1257324219  0.75799     3520.00000 0.8943       1.056760       0.105669
  89.358   0.1257324219  0.76931     3520.50000 0.8774       1.225937       0.122580
  90.842   0.1257324219  0.78182     3521.00000 0.8601       1.398788       0.139859
  92.338   0.1257324219  0.79465     3521.50000 0.8446       1.554452       0.155424
  88.017   0.1303710938  0.79210     3519.50000 0.9064       0.935965       0.093593
  88.114   0.1303710938  0.80213     3520.00000 0.8926       1.074206       0.107412
  89.133   0.1303710938  0.81335     3520.50000 0.8765       1.235124       0.123496
  87.965   0.1350097656  0.82316     3520.00000 0.8912       1.087632       0.108751
  29.017   0.1396484375  0.75604      969.00000 0.8543       1.457007       0.145698
  30.765   0.1396484375  0.76190      969.50000 0.8610       1.390433       0.139037
  31.665   0.1396484375  0.76863      970.00000 0.8665       1.334949       0.133481
  14.309   0.1396484375  0.76506      973.00000 0.8790       1.210449       0.121029
  25.282   0.1442871094  0.75307      968.00000 0.8367       1.633526       0.163347
  26.774   0.1442871094  0.76137      968.50000 0.8468       1.531715       0.153169
  28.733   0.1442871094  0.76677      969.00000 0.8552       1.448203       0.144818
  30.560   0.1442871094  0.77128      969.50000 0.8620       1.379811       0.137976
  31.637   0.1442871094  0.77634      970.00000 0.8677       1.322940       0.132282
  15.557   0.1442871094  0.77598      973.00000 0.8815       1.184664       0.118450
  14.068   0.1442871094  0.76121      973.50000 0.8813       1.186941       0.118692
  25.100   0.1489257812  0.75831      968.00000 0.8384       1.616450       0.161640
  26.503   0.1489257812  0.76733      968.50000 0.8485       1.515235       0.151522
  28.452   0.1489257812  0.77338      969.00000 0.8569       1.431491       0.143148
  30.359   0.1489257812  0.77742      969.50000 0.8637       1.362681       0.136264
  31.600   0.1489257812  0.78057      970.00000 0.8695       1.305591       0.130549
  16.554   0.1489257812  0.78025      973.00000 0.8840       1.159949       0.115979
  14.983   0.1489257812  0.76898      973.50000 0.8839       1.160833       0.116080
  15.567   0.1489257812  0.75072      974.00000 0.8845       1.155422       0.115542
  91.020   0.1489257812  0.77079     2407.00000 0.9085       0.914927       0.091492
  28.162   0.1535644531  0.78029      969.00000 0.8591       1.409451       0.140944
  30.154   0.1535644531  0.78222      969.50000 0.8659       1.341106       0.134108
  31.555   0.1535644531  0.78344      970.00000 0.8715       1.284624       0.128454
  17.376   0.1535644531  0.77764      973.00000 0.8863       1.136746       0.113658
  15.716   0.1535644531  0.77297      973.50000 0.8863       1.136632       0.113659
  16.150   0.1535644531  0.75902      974.00000 0.8869       1.130781       0.113078
  18.940   0.1535644531  0.78415      974.50000 0.8881       1.118672       0.111860
  94.163   0.1535644531  0.78452     2406.00000 0.8986       1.013975       0.101384
  93.347   0.1535644531  0.81058     2406.50000 0.9066       0.933922       0.093390
  93.993   0.1535644531  0.83121     2407.00000 0.9103       0.896619       0.089661
  29.936   0.1582031250  0.78843      969.50000 0.8684       1.316501       0.131648
  31.499   0.1582031250  0.78826      970.00000 0.8739       1.261222       0.126115
  18.077   0.1582031250  0.76987      973.00000 0.8885       1.115460       0.111529
  16.324   0.1582031250  0.77212      973.50000 0.8885       1.114672       0.111463
  16.614   0.1582031250  0.80978      974.00000 0.8892       1.108364       0.110836
  19.226   0.1582031250  0.82890      974.50000 0.8904       1.095653       0.109560
  96.368   0.1582031250  0.83569     2406.00000 0.9012       0.988564       0.098844
  95.918   0.1582031250  0.84565     2406.50000 0.9085       0.914626       0.091461
  96.807   0.1582031250  0.85506     2407.00000 0.9117       0.882974       0.088297
  16.846   0.1628417969  0.80854      973.50000 0.8905       1.095232       0.109518
  16.996   0.1628417969  0.84891      974.00000 0.8912       1.088449       0.108845
  19.445   0.1628417969  0.86288      974.50000 0.8925       1.074876       0.107484
  94.625   0.1628417969  0.75024     2163.00000 0.8449       1.551464       0.155133
  89.501   0.1628417969  0.75804     2163.50000 0.7975       2.025017       0.202502
  85.588   0.1628417969  0.75791     2164.00000 0.7424       2.575751       0.257573
  98.438   0.1628417969  0.85165     2406.00000 0.9032       0.968280       0.096816
  98.349   0.1628417969  0.84853     2406.50000 0.9100       0.900112       0.090010
  99.480   0.1628417969  0.84552     2407.00000 0.9126       0.873901       0.087390
  17.313   0.1674804688  0.79910      973.50000 0.8922       1.078523       0.107846
  17.323   0.1674804688  0.84076      974.00000 0.8929       1.071230       0.107123
  19.617   0.1674804688  0.85379      974.50000 0.8943       1.056552       0.105652
  94.478   0.1674804688  0.77816     2163.00000 0.8513       1.486688       0.148658
  89.445   0.1674804688  0.78647     2163.50000 0.8046       1.953568       0.195356
  85.575   0.1674804688  0.78695     2164.00000 0.7499       2.500839       0.250081
 100.373   0.1674804688  0.82469     2406.00000 0.9048       0.952381       0.095227
 100.644   0.1674804688  0.81980     2406.50000 0.9110       0.889930       0.088991
 102.015   0.1674804688  0.81567     2407.00000 0.9131       0.869234       0.086923
  17.748   0.1721191406  0.83268      973.50000 0.8935       1.064695       0.106463
  17.614   0.1721191406  0.86304      974.00000 0.8943       1.056822       0.105682
  19.756   0.1721191406  0.87306      974.50000 0.8959       1.040787       0.104076
  94.423   0.1721191406  0.79817     2163.00000 0.8586       1.414214       0.141413
  89.453   0.1721191406  0.80691     2163.50000 0.8127       1.873067       0.187306
  85.598   0.1721191406  0.81290     2164.00000 0.7585       2.414624       0.241458
 102.176   0.1721191406  0.79702     2406.00000 0.9060       0.940182       0.094006
 102.805   0.1721191406  0.79029     2406.50000 0.9116       0.883627       0.088361
  18.164   0.1767578125  0.85069      973.50000 0.8946       1.053841       0.105377
  17.880   0.1767578125  0.86872      974.00000 0.8955       1.045270       0.104527
  19.869   0.1767578125  0.87354      974.50000 0.8972       1.027597       0.102757
  94.462   0.1767578125  0.79918     2163.00000 0.8662       1.337575       0.133751
  89.527   0.1767578125  0.80767     2163.50000 0.8212       1.787607       0.178759
  85.656   0.1767578125  0.81514     2164.00000 0.7678       2.322065       0.232200
 103.847   0.1767578125  0.76505     2406.00000 0.9069       0.931039       0.093091
 104.834   0.1767578125  0.76199     2406.50000 0.9119       0.880746       0.088072
  18.574   0.1813964844  0.84044      973.50000 0.8954       1.046005       0.104593
  18.128   0.1813964844  0.85830      974.00000 0.8963       1.036558       0.103655
  19.960   0.1813964844  0.86229      974.50000 0.8983       1.016923       0.101690
  24.076   0.1813964844  0.85285      975.00000 0.9008       0.991937       0.099184
  94.604   0.1813964844  0.77937     2163.00000 0.8740       1.259675       0.125963
  89.672   0.1813964844  0.78688     2163.50000 0.8299       1.700562       0.170053
  85.753   0.1813964844  0.79380     2164.00000 0.7773       2.227338       0.222726
  18.982   0.1860351562  0.84275      973.50000 0.8959       1.041189       0.104111
  18.362   0.1860351562  0.84765      974.00000 0.8969       1.030616       0.103061
  20.026   0.1860351562  0.84876      974.50000 0.8991       1.008647       0.100863
  24.028   0.1860351562  0.84410      975.00000 0.9020       0.980102       0.098001
  19.392   0.1906738281  0.82813      973.50000 0.8961       1.039363       0.103928
  18.580   0.1906738281  0.83227      974.00000 0.8973       1.027331       0.102733
  20.065   0.1906738281  0.83320      974.50000 0.8997       1.002598       0.100258
  23.951   0.1906738281  0.82823      975.00000 0.9030       0.970071       0.096998
  19.804   0.1953125000  0.82097      973.50000 0.8960       1.040467       0.104038
  18.780   0.1953125000  0.81107      974.00000 0.8973       1.026555       0.102655
  20.072   0.1953125000  0.80749      974.50000 0.9001       0.998570       0.099855
  23.839   0.1953125000  0.80704      975.00000 0.9038       0.961620       0.096153
  20.217   0.1999511719  0.80043      973.50000 0.8956       1.044412       0.104432
  18.958   0.1999511719  0.78941      974.00000 0.8972       1.028101       0.102810
  20.041   0.1999511719  0.78534      974.50000 0.9004       0.996327       0.099631
  23.686   0.1999511719  0.78519      975.00000 0.9046       0.954503       0.095441
  20.627   0.2045898438  0.78867      973.50000 0.8949       1.051089       0.105099
  19.110   0.2045898438  0.76801      974.00000 0.8968       1.031762       0.103176
  19.966   0.2045898438  0.75497      974.50000 0.9004       0.995617       0.099559
  23.486   0.2045898438  0.75137      975.00000 0.9052       0.948471       0.094837
  21.031   0.2092285156  0.76078      973.50000 0.8940       1.060363       0.106026
   0.183   0.2370605469  0.75056     3137.50000 0.9117       0.882950       0.088289
-116.123   0.2416992188  0.75234      347.00000 0.9293       0.707093       0.070704
  -0.205   0.2416992188  0.75230     3137.50000 0.9107       0.893120       0.089307
  -0.898   0.2509765625  0.75544     3137.50000 0.9088       0.911918       0.091189
-109.059   0.2973632812  0.75893        3.00000 0.8979       1.020512       0.102050
-109.120   0.3020019531  0.85039        3.00000 0.8971       1.029194       0.102919
  76.287   0.3298339844  0.75333      352.00000 0.9618       0.381844       0.038183
  77.047   0.3344726562  0.75511      352.00000 0.9620       0.380045       0.038003
  77.813   0.3391113281  0.75087      352.00000 0.9621       0.378924       0.037891
  65.016   0.3483886719  0.97867        1.00000 0.3866       6.134281       0.613407
  73.526   0.3483886719  0.75178     3908.00000 0.9574       0.426229       0.042622
  80.861   0.3576660156  0.75907      352.00000 0.9620       0.380287       0.038027
  81.604   0.3623046875  0.77228      352.00000 0.9618       0.381885       0.038186
  82.335   0.3669433594  0.77372      352.00000 0.9616       0.383913       0.038389
  83.051   0.3715820312  0.76532      352.00000 0.9614       0.386341       0.038632
  83.749   0.3762207031  0.75096      352.00000 0.9611       0.389141       0.038912
-103.558   0.3762207031  0.77915      353.00000 0.9932       0.067706       0.006770
-107.395   0.3808593750  0.77355      353.00000 0.9924       0.075918       0.007591
  68.331   0.3808593750  0.79749     3908.00000 0.9567       0.433210       0.043319
-110.355   0.3854980469  0.75672      353.00000 0.9916       0.084150       0.008415
  67.676   0.3854980469  0.79026     3908.00000 0.9567       0.432940       0.043292
  67.040   0.3901367188  0.78289     3908.00000 0.9568       0.432353       0.043234
-110.903   0.3947753906  0.75442        3.50000 0.8882       1.117704       0.111759
  66.422   0.3947753906  0.77541     3908.00000 0.9569       0.431452       0.043143
-110.945   0.3994140625  0.77672        3.50000 0.8856       1.143972       0.114385
  65.821   0.3994140625  0.76784     3908.00000 0.9570       0.430239       0.043022
  65.235   0.4040527344  0.76022     3908.00000 0.9571       0.428719       0.042870
  64.664   0.4086914062  0.75255     3908.00000 0.9573       0.426895       0.042687
-111.085   0.4226074219  0.76693        3.50000 0.8719       1.281174       0.128099
-111.104   0.4272460938  0.78559        3.50000 0.8691       1.309549       0.130935
  95.291   0.4411621094  0.75394     1904.50000 0.9182       0.818458       0.081843
  94.414   0.4458007812  0.75684     1904.50000 0.9137       0.863450       0.086342
-102.307   0.4689941406  0.75751      847.00000 0.6019       3.981490       0.398144
-102.439   0.4736328125  0.77108      847.00000 0.5942       4.057830       0.405778
-102.567   0.4782714844  0.78337      847.00000 0.5864       4.135838       0.413579
-102.693   0.4829101562  0.79452      847.00000 0.5785       4.215519       0.421546
-102.816   0.4875488281  0.80465      847.00000 0.5703       4.296876       0.429682
-104.391   0.4875488281  0.88843      867.00000 0.5120       4.879802       0.487978
-104.539   0.4921875000  0.88996      867.00000 0.5026       4.974006       0.497399
-104.681   0.4968261719  0.89153      867.00000 0.4932       5.068163       0.506814
-104.818   0.5014648438  0.89314      867.00000 0.4838       5.162100       0.516208
2009  27 18  4 28 350
   5.717   0.1489257812  0.78577     3506.00000 0.9474       0.526473       0.052647
  12.084   0.1535644531  0.78682     3505.50000 0.9320       0.679705       0.067970
   3.389   0.1535644531  0.80433     3506.00000 0.9413       0.587207       0.058721
   9.316   0.1582031250  0.78299     3505.50000 0.9277       0.723367       0.072336
   1.312   0.1582031250  0.78824     3506.00000 0.9363       0.637053       0.063705
   6.871   0.1628417969  0.75195     3505.50000 0.9241       0.758839       0.075884
  -0.554   0.1628417969  0.75164     3506.00000 0.9322       0.678031       0.067803
  32.049   0.1860351562  0.76946     1580.50000 0.9234       0.766087       0.076609
  31.541   0.1906738281  0.77696     1580.50000 0.9262       0.738315       0.073831
 -21.229   0.2045898438  0.94335     3158.50000 0.6327       3.672809       0.367265
 -20.663   0.2092285156  0.94306     3158.50000 0.6324       3.675664       0.367556
 -20.951   0.2185058594  0.88343     3158.00000 0.7034       2.965856       0.296579
 -20.282   0.2231445312  0.90588     3158.00000 0.7072       2.928447       0.292839
 -22.092   0.2324218750  0.89747     3157.50000 0.7755       2.245556       0.224535
 -21.571   0.2370605469  0.90520     3157.50000 0.7800       2.200607       0.220039
 -21.076   0.2416992188  0.89561     3157.50000 0.7845       2.155378       0.215516
 -20.609   0.2463378906  0.88473     3157.50000 0.7890       2.110453       0.211024
 -93.283   0.2695312500  0.77248     2502.50000 0.9463       0.537103       0.053704
 -93.407   0.2741699219  0.79058     2502.50000 0.9454       0.546196       0.054614
 -93.606   0.2788085938  0.80954     2502.50000 0.9444       0.555591       0.055554
-101.089   0.2788085938  0.81116     2503.00000 0.9569       0.430700       0.043065
 -93.877   0.2834472656  0.81919     2502.50000 0.9435       0.565113       0.056507
-101.471   0.2834472656  0.81926     2503.00000 0.9567       0.433307       0.043326
 -94.217   0.2880859375  0.82215     2502.50000 0.9425       0.574624       0.057459
-101.938   0.2880859375  0.82222     2503.00000 0.9564       0.435929       0.043590
 -94.619   0.2927246094  0.81030     2502.50000 0.9416       0.584017       0.058399
-102.485   0.2927246094  0.81034     2503.00000 0.9562       0.438482       0.043846
  40.153   0.3715820312  0.76387     3279.00000 0.6966       3.034353       0.303391
  40.444   0.3762207031  0.76578     3279.00000 0.6926       3.073953       0.307353
  40.977   0.3854980469  0.75030     3279.00000 0.6834       3.166276       0.316590
  41.219   0.3901367188  0.75039     3279.00000 0.6782       3.218805       0.321845
  41.445   0.3947753906  0.75010     3279.00000 0.6725       3.275464       0.327513
  42.352   0.4179687500  0.76388     3279.00000 0.6382       3.618064       0.361783
 -63.670   0.4226074219  0.75264      717.50000 0.8663       1.336998       0.133692
 -63.594   0.4272460938  0.76098      717.50000 0.8634       1.366308       0.136623
 133.363   0.4272460938  0.75648      719.50000 0.9537       0.463133       0.046313
 -63.517   0.4318847656  0.76850      717.50000 0.8604       1.396055       0.139597
 132.865   0.4318847656  0.76281      719.50000 0.9521       0.478938       0.047894
 -63.439   0.4365234375  0.77530      717.50000 0.8574       1.426239       0.142615
 132.402   0.4365234375  0.76859      719.50000 0.9505       0.495213       0.049521
 -63.359   0.4411621094  0.78146      717.50000 0.8543       1.456859       0.145676
 131.970   0.4411621094  0.77390      719.50000 0.9488       0.511949       0.051195
 -63.279   0.4458007812  0.78705      717.50000 0.8512       1.487915       0.148781
 131.568   0.4458007812  0.77880      719.50000 0.9471       0.529141       0.052914
-139.581   0.4458007812  0.75397     2079.50000 0.8694       1.305740       0.130571
-124.625   0.4458007812  0.75011     2602.00000 0.9537       0.462833       0.046277
-117.605   0.4458007812  0.75073     2603.50000 0.9094       0.906242       0.090618
 -63.198   0.4504394531  0.79215      717.50000 0.8481       1.519406       0.151930
 131.194   0.4504394531  0.78336      719.50000 0.9453       0.546784       0.054678
-139.648   0.4504394531  0.76106     2079.50000 0.8666       1.334119       0.133409
-124.329   0.4504394531  0.75313     2602.00000 0.9550       0.450499       0.045044
-117.732   0.4504394531  0.75493     2603.50000 0.9082       0.918390       0.091833
 -63.116   0.4550781250  0.79681      717.50000 0.8449       1.551332       0.155121
 130.844   0.4550781250  0.78763      719.50000 0.9435       0.564872       0.056487
-139.710   0.4550781250  0.76787     2079.50000 0.8637       1.362878       0.136285
-124.022   0.4550781250  0.75533     2602.00000 0.9562       0.438092       0.043804
-117.853   0.4550781250  0.75877     2603.50000 0.9069       0.930763       0.093071
 -63.033   0.4597167969  0.80110      717.50000 0.8416       1.583693       0.158357
 130.518   0.4597167969  0.79166      719.50000 0.9417       0.583401       0.058340
-139.768   0.4597167969  0.77438     2079.50000 0.8608       1.392018       0.139199
-123.703   0.4597167969  0.75665     2602.00000 0.9574       0.425623       0.042557
-117.967   0.4597167969  0.76224     2603.50000 0.9057       0.943359       0.094330
 -62.950   0.4643554688  0.80952      717.50000 0.8384       1.616487       0.161635
 130.213   0.4643554688  0.80012      719.50000 0.9398       0.602365       0.060236
-139.821   0.4643554688  0.77171     2079.50000 0.8578       1.421543       0.142151
 -62.866   0.4689941406  0.81467      717.50000 0.8350       1.649715       0.164957
 129.928   0.4689941406  0.80312      719.50000 0.9378       0.621760       0.062176
-139.870   0.4689941406  0.77799     2079.50000 0.8549       1.451454       0.145142
-118.178   0.4689941406  0.75130     2603.50000 0.9031       0.969220       0.096916
 -62.782   0.4736328125  0.81946      717.50000 0.8317       1.683375       0.168323
 129.661   0.4736328125  0.80599      719.50000 0.9358       0.641583       0.064158
-139.915   0.4736328125  0.78386     2079.50000 0.8518       1.481753       0.148172
-118.277   0.4736328125  0.75419     2603.50000 0.9018       0.982484       0.098243
 -62.697   0.4782714844  0.82391      717.50000 0.8283       1.717465       0.171731
 129.412   0.4782714844  0.80876      719.50000 0.9338       0.661827       0.066183
-139.956   0.4782714844  0.78932     2079.50000 0.8488       1.512441       0.151241
-118.371   0.4782714844  0.75665     2603.50000 0.9004       0.995973       0.099592
 -62.611   0.4829101562  0.82807      717.50000 0.8248       1.751986       0.175182
 129.177   0.4829101562  0.81144      719.50000 0.9318       0.682492       0.068249
-139.994   0.4829101562  0.79439     2079.50000 0.8457       1.543521       0.154349
-118.461   0.4829101562  0.75867     2603.50000 0.8990       1.009687       0.100963
 -62.526   0.4875488281  0.83196      717.50000 0.8213       1.786935       0.178676
 128.957   0.4875488281  0.81406      719.50000 0.9296       0.703571       0.070357
-140.029   0.4875488281  0.79905     2079.50000 0.8425       1.574994       0.157496
-118.548   0.4875488281  0.76027     2603.50000 0.8976       1.023626       0.102358
 -62.440   0.4921875000  0.83562      717.50000 0.8178       1.822311       0.182212
 128.751   0.4921875000  0.81662      719.50000 0.9275       0.725061       0.072506
-140.061   0.4921875000  0.80333     2079.50000 0.8393       1.606862       0.160683
-118.631   0.4921875000  0.76142     2603.50000 0.8962       1.037794       0.103774
-166.773   0.4921875000  0.75404     3101.00000 0.8769       1.231467       0.123141
 -62.354   0.4968261719  0.83905      717.50000 0.8142       1.858113       0.185792
 128.557   0.4968261719  0.81915      719.50000 0.9253       0.746958       0.074696
-140.090   0.4968261719  0.80724     2079.50000 0.8361       1.639124       0.163909
-118.711   0.4968261719  0.76213     2603.50000 0.8948       1.052191       0.105214
-166.606   0.4968261719  0.76094     3101.00000 0.8734       1.266150       0.126609
 128.374   0.5014648438  0.82164      719.50000 0.9231       0.769260       0.076926
-140.116   0.5014648438  0.81080     2079.50000 0.8328       1.671784       0.167175
-118.788   0.5014648438  0.76238     2603.50000 0.8933       1.066819       0.106677
-166.439   0.5014648438  0.76761     3101.00000 0.8699       1.301340       0.130128
2009  27 19 12 23 350
  41.708   0.2092285156  0.75002     3458.50000 0.9388       0.612066       0.061205
  30.893   0.2092285156  0.75698     3460.00000 0.9285       0.714810       0.071481
  35.598   0.2092285156  0.75529     3460.50000 0.9111       0.889312       0.088931
  39.989   0.2138671875  0.75561     3458.50000 0.9422       0.578327       0.057831
  27.611   0.2138671875  0.75933     3459.50000 0.9404       0.596429       0.059642
  29.470   0.2138671875  0.75725     3460.00000 0.9310       0.690463       0.069046
  34.948   0.2138671875  0.75280     3460.50000 0.9125       0.875466       0.087547
  47.996   0.2185058594  0.77094     3458.00000 0.9432       0.567759       0.056775
  38.136   0.2185058594  0.75941     3458.50000 0.9454       0.545859       0.054585
  25.305   0.2185058594  0.75745     3459.50000 0.9434       0.566271       0.056625
  27.884   0.2185058594  0.75410     3460.00000 0.9336       0.664478       0.066447
  34.237   0.2185058594  0.75022     3460.50000 0.9140       0.860060       0.086006
  46.603   0.2231445312  0.77352     3458.00000 0.9462       0.538455       0.053845
  36.139   0.2231445312  0.75969     3458.50000 0.9485       0.514755       0.051474
  26.713   0.2231445312  0.75471     3459.00000 0.9496       0.503740       0.050372
  45.143   0.2277832031  0.76849     3458.00000 0.9489       0.511141       0.051114
  33.987   0.2277832031  0.75362     3458.50000 0.9515       0.485125       0.048511
  43.619   0.2324218750  0.75438     3458.00000 0.9514       0.485762       0.048576
  65.835   0.4226074219  0.75252     2908.50000 0.6550       3.449712       0.344960
  65.576   0.4272460938  0.76235     2908.50000 0.6461       3.539257       0.353913
  65.325   0.4318847656  0.77143     2908.50000 0.6369       3.631186       0.363105
  65.083   0.4365234375  0.77981     2908.50000 0.6275       3.725489       0.372534
  64.848   0.4411621094  0.78752     2908.50000 0.6178       3.822157       0.382200
  64.622   0.4458007812  0.79464     2908.50000 0.6079       3.921180       0.392101
  64.403   0.4504394531  0.80122     2908.50000 0.5978       4.022546       0.402237
  64.192   0.4550781250  0.80731     2908.50000 0.5874       4.126251       0.412606
  63.987   0.4597167969  0.81297     2908.50000 0.5768       4.232284       0.423209
  99.760   0.4643554688  0.81536     1918.00000 0.7922       2.078044       0.207800
  99.753   0.4689941406  0.81884     1918.00000 0.7886       2.113745       0.211370
  99.745   0.4736328125  0.82204     1918.00000 0.7850       2.150103       0.215007
  99.737   0.4782714844  0.82502     1918.00000 0.7813       2.187107       0.218707
  99.729   0.4829101562  0.82780     1918.00000 0.7775       2.224743       0.222471
  99.721   0.4875488281  0.83041     1918.00000 0.7737       2.262996       0.226297
  99.713   0.4921875000  0.83287     1918.00000 0.7698       2.301856       0.230183
  99.705   0.4968261719  0.83521     1918.00000 0.7659       2.341306       0.234128
  99.697   0.5014648438  0.83743     1918.00000 0.7619       2.381334       0.238131
2009  27 20 20 18 350
  44.523   0.1535644531  0.76714     3821.00000 0.8834       1.166245       0.116617
  77.086   0.1582031250  0.79731       42.50000 0.7330       2.670145       0.267002
  44.473   0.1582031250  0.75463     3821.00000 0.8885       1.114890       0.111483
  77.404   0.1628417969  0.80046       43.00000 0.7155       2.845018       0.284500
  44.561   0.1628417969  0.76305     3821.00000 0.8933       1.067372       0.106733
  77.759   0.1674804688  0.79102       43.00000 0.7128       2.871714       0.287170
  77.656   0.1721191406  0.75905       43.50000 0.7204       2.795960       0.279559
-113.683   0.3994140625  0.76467     2924.50000 0.7679       2.321813       0.232146
-113.648   0.4040527344  0.76618     2924.50000 0.7626       2.373971       0.237363
-113.618   0.4086914062  0.76745     2924.50000 0.7574       2.426688       0.242637
-113.592   0.4133300781  0.76851     2924.50000 0.7520       2.479978       0.247967
2009  27 21 28 13 350
  78.964   0.1257324219  0.75521      507.50000 0.8688       1.312317       0.131232
  75.838   0.1303710938  0.78758      507.50000 0.8757       1.242902       0.124290
  67.400   0.1350097656  0.77225      507.00000 0.8726       1.274507       0.127443
  73.211   0.1350097656  0.81261      507.50000 0.8831       1.169010       0.116901
  77.598   0.1350097656  0.84457      508.00000 0.8878       1.122453       0.112233
  65.382   0.1396484375  0.78878      507.00000 0.8807       1.193199       0.119311
  71.037   0.1396484375  0.83060      507.50000 0.8910       1.090483       0.109047
  75.235   0.1396484375  0.84831      508.00000 0.8954       1.046371       0.104630
  58.925   0.1442871094  0.75636      506.50000 0.8754       1.246242       0.124609
  63.691   0.1442871094  0.79967      507.00000 0.8891       1.109227       0.110912
  69.317   0.1442871094  0.83024      507.50000 0.8992       1.008054       0.100803
  73.373   0.1442871094  0.82999      508.00000 0.9035       0.965509       0.096548
  57.505   0.1489257812  0.76023      506.50000 0.8840       1.160315       0.116015
  68.086   0.1489257812  0.80203      507.50000 0.9077       0.923058       0.092302
  72.066   0.1489257812  0.80591      508.00000 0.9119       0.880886       0.088088
  56.937   0.1535644531  0.77854      316.00000 0.6981       3.019701       0.301927
  67.404   0.1535644531  0.77109      507.50000 0.9163       0.837187       0.083714
  71.413   0.1535644531  0.77985      508.00000 0.9206       0.794081       0.079408
  42.642   0.1535644531  0.77327     2192.50000 0.7948       2.051983       0.205198
  57.015   0.1582031250  0.79155      316.00000 0.7017       2.983841       0.298344
  42.981   0.1582031250  0.84301     2192.50000 0.7893       2.107265       0.210726
  42.837   0.1628417969  0.90053     2192.00000 0.7922       2.078431       0.207826
  43.229   0.1628417969  0.90065     2192.50000 0.7842       2.158418       0.215837
  43.262   0.1674804688  0.86524     2192.00000 0.7847       2.153272       0.215318
  43.617   0.1721191406  0.92411     2192.00000 0.7763       2.236733       0.223670
  43.881   0.1767578125  0.93284     2192.00000 0.7672       2.327681       0.232768
  44.037   0.1813964844  0.91852     2192.00000 0.7580       2.420396       0.242039
  47.197   0.1813964844  0.88380     2195.50000 0.6981       3.019246       0.301885
  46.519   0.1860351562  0.88109     2195.50000 0.7059       2.940782       0.294054
  66.971   0.3298339844  0.83250     3677.50000 0.8716       1.283805       0.128370
  66.687   0.3344726562  0.83078     3677.50000 0.8685       1.315119       0.131501
  66.438   0.3391113281  0.82540     3677.50000 0.8653       1.347174       0.134706
  66.222   0.3437500000  0.81106     3677.50000 0.8620       1.379945       0.137982
  66.037   0.3483886719  0.75145     3677.50000 0.8587       1.413416       0.141328
  65.644   0.3623046875  0.77205     3677.50000 0.8482       1.517925       0.151776
  65.560   0.3669433594  0.78040     3677.50000 0.8446       1.554115       0.155394
  65.497   0.3715820312  0.77864     3677.50000 0.8409       1.590982       0.159080
  65.453   0.3762207031  0.77180     3677.50000 0.8372       1.628530       0.162833
  57.411   0.4179687500  0.76383        2.00000 0.6926       3.074149       0.307409
  57.441   0.4226074219  0.76792        2.00000 0.6914       3.086252       0.308619
  57.469   0.4272460938  0.75943        2.00000 0.6903       3.097526       0.309747
-135.358   0.4643554688  0.76392     1217.50000 0.8699       1.301242       0.130112
-135.443   0.4689941406  0.77127     1217.50000 0.8673       1.327404       0.132728
-135.524   0.4736328125  0.77815     1217.50000 0.8646       1.354175       0.135404
-135.604   0.4782714844  0.78458     1217.50000 0.8619       1.381547       0.138140
  78.303   0.4829101562  0.75211      378.00000 0.8174       1.825917       0.182590
