 -35.185   0.1164550781  0.81465     2112.00000 0.9001       0.998545       0.099853
 -34.411   0.1164550781  0.81417     2112.50000 0.8825       1.175341       0.117532
 -31.498   0.1210937500  0.77574     2110.00000 0.9678       0.322069       0.032207
 -35.243   0.1210937500  0.77056     2110.50000 0.9558       0.442278       0.044227
 -37.067   0.1210937500  0.76645     2111.00000 0.9403       0.596977       0.059696
 -37.574   0.1210937500  0.76360     2111.50000 0.9223       0.776798       0.077677
 -37.232   0.1210937500  0.76193     2112.00000 0.9028       0.971547       0.097150
 -36.334   0.1210937500  0.76124     2112.50000 0.8828       1.171627       0.117158
 144.777   0.4179687500  0.84468     3168.50000 0.8988       1.012118       0.101205
 144.759   0.4226074219  0.84260     3168.50000 0.8967       1.033302       0.103324
 144.740   0.4272460938  0.83662     3168.50000 0.8945       1.055056       0.105499
 144.721   0.4318847656  0.82338     3168.50000 0.8923       1.077375       0.107731
 144.702   0.4365234375  0.79642     3168.50000 0.8900       1.100251       0.110018
 144.682   0.4411621094  0.75100     3168.50000 0.8876       1.123679       0.112361
 144.626   0.4550781250  0.77603     3168.50000 0.8803       1.197215       0.119714
 144.608   0.4597167969  0.80772     3168.50000 0.8777       1.222793       0.122272
 144.591   0.4643554688  0.85030     3168.50000 0.8751       1.248892       0.124882
 144.574   0.4689941406  0.86196     3168.50000 0.8725       1.275509       0.127544
 144.557   0.4736328125  0.86865     3168.50000 0.8697       1.302638       0.130256
 144.542   0.4782714844  0.87245     3168.50000 0.8670       1.330274       0.133020
 144.527   0.4829101562  0.87444     3168.50000 0.8642       1.358409       0.135833
 144.513   0.4875488281  0.87522     3168.50000 0.8613       1.387040       0.138696
   3.116   0.4921875000  0.75357     1123.50000 0.7105       2.895040       0.289500
 144.499   0.4921875000  0.87515     3168.50000 0.8584       1.416161       0.141608
 -60.747   0.4968261719  0.75231      679.00000 0.5682       4.318658       0.431849
   3.066   0.4968261719  0.75998     1123.50000 0.7051       2.949311       0.294927
 144.486   0.4968261719  0.87444     3168.50000 0.8554       1.445767       0.144569
 -60.606   0.5014648438  0.75982      679.00000 0.5598       4.401753       0.440158
   3.017   0.5014648438  0.76765     1123.50000 0.6996       3.004255       0.300422
 133.801   0.5014648438  0.76506     1235.00000 0.8148       1.851804       0.185180
 144.474   0.5014648438  0.87321     3168.50000 0.8524       1.475853       0.147577
2009   5 18  6  0 250
 -31.831   0.3808593750  0.75301     1379.00000 0.6708       3.291794       0.329171
 -31.790   0.3854980469  0.75954     1379.00000 0.6646       3.353711       0.335363
 -31.747   0.3901367188  0.76528     1379.00000 0.6582       3.417838       0.341775
 -31.702   0.3947753906  0.77035     1379.00000 0.6516       3.484204       0.348412
  28.986   0.3994140625  0.76068      362.50000 0.9031       0.968751       0.096874
 -31.654   0.3994140625  0.77484     1379.00000 0.6447       3.552828       0.355274
  29.045   0.4040527344  0.78593      362.50000 0.9017       0.982581       0.098257
 -31.606   0.4040527344  0.77883     1379.00000 0.6376       3.623730       0.362364
  29.098   0.4086914062  0.80744      362.50000 0.9003       0.996705       0.099669
  23.562   0.4086914062  0.75438      366.00000 0.8326       1.674070       0.167407
 -31.555   0.4086914062  0.78238     1379.00000 0.6303       3.696917       0.369683
  29.147   0.4133300781  0.82555      362.50000 0.8989       1.011121       0.101110
  23.664   0.4133300781  0.76556      366.00000 0.8301       1.698947       0.169895
 -31.504   0.4133300781  0.78553     1379.00000 0.6228       3.772397       0.377231
 -18.674   0.4179687500  0.83657       91.50000 0.9680       0.320366       0.032036
  29.192   0.4179687500  0.85378      362.50000 0.8974       1.025829       0.102581
  23.763   0.4179687500  0.76763      366.00000 0.8276       1.724374       0.172437
 -31.451   0.4179687500  0.88873     1379.00000 0.6150       3.850170       0.385008
 133.241   0.4179687500  0.80080     2690.50000 0.7474       2.526423       0.252631
 -18.883   0.4226074219  0.84880       91.50000 0.9677       0.322908       0.032290
 -18.931   0.4226074219  0.75339       92.00000 0.9856       0.143530       0.014353
  23.859   0.4226074219  0.77259      366.00000 0.8250       1.750332       0.175033
 -31.397   0.4226074219  0.89071     1379.00000 0.6070       3.930228       0.393014
 133.370   0.4226074219  0.80356     2690.50000 0.7395       2.605110       0.260499
 -19.093   0.4272460938  0.85906       91.50000 0.9674       0.325675       0.032567
 -19.565   0.4272460938  0.76263       92.00000 0.9857       0.143071       0.014307
  23.953   0.4272460938  0.77514      366.00000 0.8223       1.776806       0.177681
 -31.343   0.4272460938  0.89256     1379.00000 0.5988       4.012569       0.401248
 133.496   0.4272460938  0.80625     2690.50000 0.7315       2.685593       0.268547
 -19.301   0.4318847656  0.86748       91.50000 0.9671       0.328659       0.032866
 -20.203   0.4318847656  0.77013       92.00000 0.9857       0.142775       0.014278
  24.044   0.4318847656  0.77597      366.00000 0.8196       1.803777       0.180378
 -31.288   0.4318847656  0.89431     1379.00000 0.5903       4.097172       0.409708
 133.620   0.4318847656  0.80888     2690.50000 0.7232       2.767854       0.276772
 -19.508   0.4365234375  0.87419       91.50000 0.9668       0.331854       0.033185
 -20.840   0.4365234375  0.77601       92.00000 0.9857       0.142637       0.014264
  24.132   0.4365234375  0.77574      366.00000 0.8169       1.831228       0.183123
 -31.232   0.4365234375  0.89598     1379.00000 0.5816       4.184021       0.418393
 133.741   0.4365234375  0.81146     2690.50000 0.7148       2.851873       0.285173
 -19.713   0.4411621094  0.87933       91.50000 0.9665       0.335252       0.033525
 -21.473   0.4411621094  0.78042       92.00000 0.9857       0.142649       0.014265
  24.217   0.4411621094  0.77502      366.00000 0.8141       1.859142       0.185914
 -31.176   0.4411621094  0.89758     1379.00000 0.5727       4.273089       0.427299
-137.843   0.4411621094  0.75278     2357.00000 0.9065       0.935326       0.093531
 133.860   0.4411621094  0.81398     2690.50000 0.7063       2.937634       0.293748
 -19.914   0.4458007812  0.88302       91.50000 0.9661       0.338846       0.033884
 -22.098   0.4458007812  0.78347       92.00000 0.9857       0.142804       0.014280
  24.300   0.4458007812  0.77435      366.00000 0.8113       1.887500       0.188750
 -31.120   0.4458007812  0.89911     1379.00000 0.5636       4.364347       0.436425
-137.649   0.4458007812  0.75705     2357.00000 0.9034       0.965752       0.096573
 133.977   0.4458007812  0.81646     2690.50000 0.6975       3.025108       0.302494
 -20.111   0.4504394531  0.88540       91.50000 0.9657       0.342631       0.034262
 -22.710   0.4504394531  0.78530       92.00000 0.9857       0.143096       0.014310
  24.380   0.4504394531  0.77412      366.00000 0.8084       1.916282       0.191628
 -31.064   0.4504394531  0.90059     1379.00000 0.5542       4.457755       0.445766
-137.466   0.4504394531  0.76076     2357.00000 0.9004       0.996517       0.099650
 134.091   0.4504394531  0.81890     2690.50000 0.6886       3.114278       0.311410
 137.007   0.4504394531  0.82858     2857.50000 0.5344       4.656476       0.465592
 -20.303   0.4550781250  0.88662       91.50000 0.9653       0.346599       0.034659
 -23.309   0.4550781250  0.78603       92.00000 0.9856       0.143517       0.014352
  24.457   0.4550781250  0.77456      366.00000 0.8055       1.945471       0.194547
 -31.008   0.4550781250  0.90202     1379.00000 0.5447       4.553271       0.455317
-137.292   0.4550781250  0.76397     2357.00000 0.8972       1.027622       0.102760
 134.203   0.4550781250  0.82130     2690.50000 0.6795       3.205117       0.320492
 136.895   0.4550781250  0.83809     2857.50000 0.5265       4.735449       0.473485
 -20.490   0.4597167969  0.88681       91.50000 0.9649       0.350744       0.035074
 -23.890   0.4597167969  0.78580       92.00000 0.9856       0.144060       0.014406
  24.531   0.4597167969  0.77570      366.00000 0.8025       1.975046       0.197505
 -30.952   0.4597167969  0.90341     1379.00000 0.5349       4.650845       0.465075
-137.128   0.4597167969  0.76671     2357.00000 0.8941       1.059063       0.105905
 134.312   0.4597167969  0.82365     2690.50000 0.6703       3.297599       0.329739
 -20.672   0.4643554688  0.92927       91.50000 0.9645       0.355061       0.035505
 -24.451   0.4643554688  0.93773       92.00000 0.9855       0.144718       0.014472
 -39.569   0.4643554688  0.75215      649.00000 0.8156       1.844323       0.184429
-136.973   0.4643554688  0.85603     2357.00000 0.8909       1.090842       0.109082
 134.418   0.4643554688  0.80749     2690.50000 0.6609       3.391702       0.339147
 -20.848   0.4689941406  0.92728       91.50000 0.9640       0.359542       0.035953
 -24.991   0.4689941406  0.93566       92.00000 0.9855       0.145485       0.014548
 -39.631   0.4689941406  0.75518      649.00000 0.8107       1.893300       0.189326
-136.825   0.4689941406  0.86011     2357.00000 0.8877       1.122956       0.112294
 134.522   0.4689941406  0.80997     2690.50000 0.6513       3.487396       0.348715
 -21.018   0.4736328125  0.92461       91.50000 0.9636       0.364185       0.036417
 -25.507   0.4736328125  0.93279       92.00000 0.9854       0.146351       0.014635
 -39.692   0.4736328125  0.75815      649.00000 0.8057       1.942856       0.194282
-136.686   0.4736328125  0.86384     2357.00000 0.8845       1.155403       0.115539
 134.623   0.4736328125  0.81240     2690.50000 0.6416       3.584656       0.358439
 -21.182   0.4782714844  0.92135       91.50000 0.9631       0.368980       0.036897
 -25.999   0.4782714844  0.92922       92.00000 0.9853       0.147312       0.014731
 -39.752   0.4782714844  0.76108      649.00000 0.8007       1.992978       0.199294
-136.553   0.4782714844  0.86726     2357.00000 0.8812       1.188182       0.118817
 134.721   0.4782714844  0.81478     2690.50000 0.6317       3.683453       0.368317
 -21.339   0.4829101562  0.91757       91.50000 0.9626       0.373926       0.037391
 -26.465   0.4829101562  0.92505       92.00000 0.9852       0.148361       0.014836
 -39.810   0.4829101562  0.76395      649.00000 0.7956       2.043648       0.204361
-136.427   0.4829101562  0.87040     2357.00000 0.8779       1.221290       0.122127
 134.818   0.4829101562  0.81711     2690.50000 0.6217       3.783760       0.378345
 -21.489   0.4875488281  0.91333       91.50000 0.9621       0.379016       0.037900
 -26.904   0.4875488281  0.92034       92.00000 0.9851       0.149491       0.014949
 -39.868   0.4875488281  0.76676      649.00000 0.7905       2.094850       0.209481
-136.307   0.4875488281  0.87328     2357.00000 0.8745       1.254726       0.125471
 134.911   0.4875488281  0.81939     2690.50000 0.6115       3.885548       0.388521
 -21.633   0.4921875000  0.90868       91.50000 0.9616       0.384244       0.038423
 -27.317   0.4921875000  0.91516       92.00000 0.9849       0.150695       0.015069
 -17.995   0.4921875000  0.75595      103.50000 0.9880       0.119726       0.011972
 -39.924   0.4921875000  0.76952      649.00000 0.7853       2.146567       0.214652
-136.192   0.4921875000  0.87592     2357.00000 0.8712       1.288484       0.128847
 135.003   0.4921875000  0.82162     2690.50000 0.6012       3.988788       0.398843
 -21.770   0.4968261719  0.90365       91.50000 0.9610       0.389609       0.038959
 -27.702   0.4968261719  0.90954       92.00000 0.9848       0.151967       0.015197
 -17.276   0.4968261719  0.76398      103.50000 0.9874       0.125928       0.012592
 -39.979   0.4968261719  0.77221      649.00000 0.7801       2.198781       0.219874
-136.083   0.4968261719  0.87835     2357.00000 0.8677       1.322564       0.132255
 135.091   0.4968261719  0.82380     2690.50000 0.5907       4.093453       0.409307
 143.519   0.4968261719  0.88644     3382.00000 0.7313       2.687186       0.268700
 -21.901   0.5014648438  0.89826       91.50000 0.9605       0.395103       0.039508
 -28.060   0.5014648438  0.90350       92.00000 0.9847       0.153302       0.015330
 -16.611   0.5014648438  0.77154      103.50000 0.9868       0.132301       0.013229
 -40.034   0.5014648438  0.77484      649.00000 0.7749       2.251472       0.225143
-135.980   0.5014648438  0.88060     2357.00000 0.8643       1.356962       0.135695
 135.178   0.5014648438  0.82593     2690.50000 0.5801       4.199514       0.419910
 143.481   0.5014648438  0.88928     3382.00000 0.7244       2.756459       0.275628
2009   5 19 13 55 250
  20.344   0.1303710938  0.75371     1433.50000 0.6951       3.049386       0.304930
 -54.518   0.2231445312  0.75701      291.50000 0.9442       0.558096       0.055809
 174.094   0.3066406250  0.76880      445.50000 0.9080       0.919987       0.091997
 173.678   0.3112792969  0.78380      445.50000 0.9075       0.924834       0.092482
 173.276   0.3159179688  0.78852      445.50000 0.9068       0.932061       0.093205
 172.891   0.3205566406  0.79096      445.50000 0.9058       0.941517       0.094151
 172.525   0.3251953125  0.80688      445.50000 0.9047       0.953075       0.095307
 172.179   0.3298339844  0.80481      445.50000 0.9033       0.966623       0.096662
 171.853   0.3344726562  0.80093      445.50000 0.9018       0.982068       0.098206
 171.548   0.3391113281  0.79577      445.50000 0.9001       0.999327       0.099932
 171.264   0.3437500000  0.78992      445.50000 0.8982       1.018330       0.101832
 -36.357   0.3437500000  0.75243     2874.00000 0.9068       0.931744       0.093170
 171.001   0.3483886719  0.82309      445.50000 0.8961       1.039016       0.103901
 -36.278   0.3483886719  0.75881     2874.00000 0.9047       0.953119       0.095308
 170.759   0.3530273438  0.81324      445.50000 0.8939       1.061334       0.106133
 -36.194   0.3530273438  0.76581     2874.00000 0.9024       0.975595       0.097555
 170.538   0.3576660156  0.80459      445.50000 0.8915       1.085240       0.108524
 -36.107   0.3576660156  0.77262     2874.00000 0.9001       0.999159       0.099912
 170.336   0.3623046875  0.79711      445.50000 0.8889       1.110696       0.111069
 -36.015   0.3623046875  0.77924     2874.00000 0.8976       1.023798       0.102376
 170.153   0.3669433594  0.79073      445.50000 0.8862       1.137668       0.113766
 -35.920   0.3669433594  0.78567     2874.00000 0.8951       1.049501       0.104946
 169.988   0.3715820312  0.78531      445.50000 0.8834       1.166131       0.116613
 -35.823   0.3715820312  0.79190     2874.00000 0.8924       1.076258       0.107622
 169.840   0.3762207031  0.78070      445.50000 0.8804       1.196059       0.119606
 -35.723   0.3762207031  0.79792     2874.00000 0.8896       1.104059       0.110402
 169.709   0.3808593750  0.76176      445.50000 0.8773       1.227435       0.122743
 -35.622   0.3808593750  0.80873     2874.00000 0.8867       1.132896       0.113285
 169.594   0.3854980469  0.75802      445.50000 0.8740       1.260240       0.126024
 -35.519   0.3854980469  0.81413     2874.00000 0.8837       1.162761       0.116272
 169.493   0.3901367188  0.75479      445.50000 0.8706       1.294460       0.129446
 -35.415   0.3901367188  0.81931     2874.00000 0.8806       1.193648       0.119360
 169.406   0.3947753906  0.75200      445.50000 0.8670       1.330085       0.133008
 -35.311   0.3947753906  0.82427     2874.00000 0.8774       1.225549       0.122551
 -35.207   0.3994140625  0.82902     2874.00000 0.8742       1.258460       0.125841
 -35.102   0.4040527344  0.83354     2874.00000 0.8708       1.292375       0.129233
 -34.998   0.4086914062  0.83785     2874.00000 0.8673       1.327288       0.132724
 -34.895   0.4133300781  0.84195     2874.00000 0.8637       1.363196       0.136315
 -34.792   0.4179687500  0.89596     2874.00000 0.8600       1.400093       0.140004
-146.853   0.4226074219  0.76264      173.00000 0.9865       0.135050       0.013504
 -34.690   0.4226074219  0.89847     2874.00000 0.8562       1.437975       0.143792
-146.815   0.4272460938  0.78143      173.00000 0.9852       0.148170       0.014816
 -34.589   0.4272460938  0.90088     2874.00000 0.8523       1.476840       0.147678
-146.756   0.4318847656  0.79782      173.00000 0.9838       0.161636       0.016162
   7.066   0.4318847656  0.75232     2298.50000 0.8676       1.324452       0.132445
 -34.489   0.4318847656  0.90319     2874.00000 0.8483       1.516682       0.151662
-146.684   0.4365234375  0.81216      173.00000 0.9825       0.175442       0.017542
   6.936   0.4365234375  0.76034     2298.50000 0.8632       1.368046       0.136804
 -34.391   0.4365234375  0.90542     2874.00000 0.8443       1.557500       0.155744
-146.601   0.4411621094  0.82480      173.00000 0.9810       0.189580       0.018956
   6.807   0.4411621094  0.76813     2298.50000 0.8588       1.412168       0.141216
 -34.294   0.4411621094  0.90755     2874.00000 0.8401       1.599289       0.159923
 -31.413   0.4411621094  0.75289     3855.50000 0.7753       2.247673       0.224743
   6.679   0.4458007812  0.77571     2298.50000 0.8543       1.456734       0.145672
 -34.199   0.4458007812  0.90960     2874.00000 0.8358       1.642045       0.164198
 -31.601   0.4458007812  0.75964     3855.50000 0.7706       2.294615       0.229437
   6.553   0.4504394531  0.78305     2298.50000 0.8498       1.501662       0.150164
 -31.783   0.4504394531  0.76615     3855.50000 0.7658       2.342243       0.234200
   6.428   0.4550781250  0.79016     2298.50000 0.8453       1.546866       0.154684
 -31.960   0.4550781250  0.77244     3855.50000 0.7610       2.390548       0.239030
   6.304   0.4597167969  0.79703     2298.50000 0.8408       1.592259       0.159223
 -32.132   0.4597167969  0.77850     3855.50000 0.7561       2.439519       0.243927
   6.183   0.4643554688  0.80825     2298.50000 0.8362       1.637753       0.163771
-154.567   0.4689941406  0.75603     1460.00000 0.8988       1.011697       0.101168
   6.063   0.4689941406  0.81427     2298.50000 0.8317       1.683261       0.168321
-154.788   0.4736328125  0.77049     1460.00000 0.8965       1.035097       0.103507
-154.996   0.4782714844  0.78491     1460.00000 0.8941       1.058803       0.105878
-155.193   0.4829101562  0.79896     1460.00000 0.8917       1.082811       0.108279
-155.380   0.4875488281  0.81236     1460.00000 0.8893       1.107118       0.110709
-155.555   0.4921875000  0.82493     1460.00000 0.8868       1.131721       0.113169
 -58.462   0.4921875000  0.75359     3528.50000 0.5956       4.044121       0.404400
 -59.093   0.4921875000  0.75815     3928.50000 0.8123       1.877618       0.187736
-155.722   0.4968261719  0.83658     1460.00000 0.8843       1.156618       0.115659
 -58.352   0.4968261719  0.75553     3528.50000 0.5861       4.138856       0.413872
 -59.043   0.4968261719  0.76704     3928.50000 0.8093       1.907039       0.190677
 137.426   0.5014648438  0.75189      845.00000 0.8125       1.875243       0.187523
-160.286   0.5014648438  0.75090     1456.50000 0.9344       0.656319       0.065632
-155.879   0.5014648438  0.84726     1460.00000 0.8818       1.181806       0.118177
 -58.248   0.5014648438  0.75744     3528.50000 0.5764       4.235673       0.423553
 -58.994   0.5014648438  0.77530     3928.50000 0.8063       1.936910       0.193663
2009   5 20 21 50 250
  49.183   0.1674804688  0.76550     2406.00000 0.9153       0.846552       0.084654
  30.744   0.1721191406  0.80122     2405.00000 0.8936       1.063955       0.106383
  40.497   0.1721191406  0.82066     2405.50000 0.9112       0.887630       0.088757
  49.545   0.1721191406  0.78724     2406.00000 0.9210       0.789934       0.078993
  17.828   0.1767578125  0.77895      587.00000 0.9259       0.741064       0.074096
  16.196   0.1767578125  0.77859      587.50000 0.9283       0.717439       0.071740
  16.818   0.1767578125  0.75057      588.00000 0.9254       0.745939       0.074593
  30.360   0.1767578125  0.83985     2405.00000 0.8991       1.009156       0.100903
  40.474   0.1767578125  0.85347     2405.50000 0.9163       0.836619       0.083654
  49.952   0.1767578125  0.83576     2406.00000 0.9258       0.741987       0.074199
  18.320   0.1813964844  0.76812      587.00000 0.9280       0.720383       0.072030
  16.463   0.1813964844  0.76924      587.50000 0.9298       0.701602       0.070157
  16.922   0.1813964844  0.75290      588.00000 0.9263       0.736991       0.073699
  50.407   0.1813964844  0.83315     2406.00000 0.9299       0.701466       0.070146
  18.812   0.1860351562  0.75667      587.00000 0.9301       0.699145       0.069908
  16.708   0.1860351562  0.75715      587.50000 0.9315       0.685015       0.068499
  16.984   0.1860351562  0.75915      588.00000 0.9273       0.726830       0.072683
  19.141   0.1860351562  0.75051      588.50000 0.9167       0.832719       0.083272
  22.349   0.1860351562  0.81305     2404.50000 0.8929       1.071290       0.107120
  50.918   0.1860351562  0.84083     2406.00000 0.9333       0.667271       0.066726
  51.981   0.1860351562  0.82095     2406.50000 0.9310       0.689646       0.068954
  52.444   0.1906738281  0.81256     2406.50000 0.9340       0.660149       0.066007
  21.622   0.1953125000  0.78643     2404.50000 0.8970       1.029608       0.102954
  52.971   0.1953125000  0.81700     2406.50000 0.9365       0.634659       0.063460
  53.583   0.1999511719  0.80388     2406.50000 0.9388       0.612389       0.061235
  54.305   0.2045898438  0.78414     2406.50000 0.9407       0.592596       0.059257
  15.999   0.2092285156  0.75964     2404.00000 0.8995       1.004507       0.100450
  55.168   0.2092285156  0.76740     2406.50000 0.9425       0.574596       0.057458
 121.053   0.3066406250  0.76113      206.00000 0.8432       1.567760       0.156775
 121.199   0.3112792969  0.77299      206.00000 0.8422       1.577550       0.157754
 121.341   0.3159179688  0.78423      206.00000 0.8410       1.589819       0.158981
 121.477   0.3205566406  0.79478      206.00000 0.8396       1.604441       0.160443
 121.608   0.3251953125  0.86575      206.00000 0.8379       1.621304       0.162129
 121.732   0.3298339844  0.87031      206.00000 0.8360       1.640307       0.164029
 121.851   0.3344726562  0.87459      206.00000 0.8339       1.661357       0.166134
 121.963   0.3391113281  0.87866      206.00000 0.8316       1.684371       0.168435
 122.068   0.3437500000  0.88257      206.00000 0.8291       1.709273       0.170925
 122.168   0.3483886719  0.91670      206.00000 0.8264       1.735990       0.173597
 122.261   0.3530273438  0.91850      206.00000 0.8236       1.764460       0.176444
 122.348   0.3576660156  0.92002      206.00000 0.8205       1.794621       0.179460
 122.429   0.3623046875  0.92130      206.00000 0.8174       1.826419       0.182639
 122.503   0.3669433594  0.92237      206.00000 0.8140       1.859802       0.185977
 122.572   0.3715820312  0.92325      206.00000 0.8105       1.894721       0.189469
-139.040   0.3715820312  0.76253     1380.00000 0.7900       2.099681       0.209958
 122.635   0.3762207031  0.92395      206.00000 0.8069       1.931134       0.193110
-139.030   0.3762207031  0.76134     1380.00000 0.7842       2.158179       0.215807
 122.692   0.3808593750  0.91779      206.00000 0.8031       1.968997       0.196896
 122.743   0.3854980469  0.91818      206.00000 0.7992       2.008272       0.200823
 122.789   0.3901367188  0.91843      206.00000 0.7951       2.048922       0.204888
 -66.981   0.3901367188  0.92734      207.50000 0.8725       1.275464       0.127545
 122.830   0.3947753906  0.91855      206.00000 0.7909       2.090910       0.209086
 -66.832   0.3947753906  0.93106      207.50000 0.8686       1.313816       0.131380
 -66.687   0.3994140625  0.93453      207.50000 0.8647       1.352990       0.135297
 -66.546   0.4040527344  0.93774      207.50000 0.8607       1.392980       0.139296
 -66.409   0.4086914062  0.94070      207.50000 0.8566       1.433783       0.143376
 -66.275   0.4133300781  0.94340      207.50000 0.8525       1.475390       0.147536
 -66.144   0.4179687500  0.94130      207.50000 0.8482       1.517800       0.151777
-169.877   0.4179687500  0.75950     1447.00000 0.8991       1.008699       0.100870
 -66.050   0.4179687500  0.76005     3164.00000 0.7270       2.729961       0.272973
 -66.017   0.4226074219  0.94374      207.50000 0.8439       1.561005       0.156097
-169.899   0.4226074219  0.76102     1447.00000 0.8972       1.027658       0.102766
 -65.958   0.4226074219  0.77075     3164.00000 0.7210       2.790740       0.279047
 -65.893   0.4272460938  0.94595      207.50000 0.8395       1.605002       0.160496
-169.918   0.4272460938  0.76369     1447.00000 0.8953       1.047192       0.104719
 -65.872   0.4272460938  0.78075     3164.00000 0.7148       2.852083       0.285177
 -65.772   0.4318847656  0.94796      207.50000 0.8350       1.649783       0.164974
-169.932   0.4318847656  0.76658     1447.00000 0.8933       1.067297       0.106730
 -65.654   0.4365234375  0.94978      207.50000 0.8305       1.695343       0.169530
-169.943   0.4365234375  0.76975     1447.00000 0.8912       1.087970       0.108797
 -65.538   0.4411621094  0.95145      207.50000 0.8258       1.741680       0.174163
-169.949   0.4411621094  0.77329     1447.00000 0.8891       1.109206       0.110921
 -65.426   0.4458007812  0.95297      207.50000 0.8211       1.788784       0.178873
-169.952   0.4458007812  0.77721     1447.00000 0.8869       1.131001       0.113100
 -65.316   0.4504394531  0.95436      207.50000 0.8163       1.836650       0.183660
-169.952   0.4504394531  0.78154     1447.00000 0.8847       1.153352       0.115335
 -65.209   0.4550781250  0.95564      207.50000 0.8115       1.885275       0.188522
-169.949   0.4550781250  0.78625     1447.00000 0.8824       1.176254       0.117625
 -65.104   0.4597167969  0.95683      207.50000 0.8065       1.934648       0.193459
-169.943   0.4597167969  0.79118     1447.00000 0.8800       1.199703       0.119970
 -65.002   0.4643554688  0.95701      207.50000 0.8015       1.984766       0.198470
 119.202   0.4643554688  0.75148      213.00000 0.7679       2.321081       0.232100
-169.934   0.4643554688  0.78128     1447.00000 0.8776       1.223695       0.122369
 -37.736   0.4643554688  0.77643     3633.50000 0.8747       1.253031       0.125303
 -64.903   0.4689941406  0.95789      207.50000 0.7964       2.035621       0.203555
 119.260   0.4689941406  0.75421      213.00000 0.7626       2.374089       0.237401
 -37.450   0.4689941406  0.78349     3633.50000 0.8718       1.281543       0.128154
 -64.805   0.4736328125  0.95875      207.50000 0.7913       2.087206       0.208713
 119.315   0.4736328125  0.75683      213.00000 0.7572       2.427994       0.242791
-169.909   0.4736328125  0.77533     1447.00000 0.8727       1.273293       0.127329
 -37.175   0.4736328125  0.79019     3633.50000 0.8689       1.310634       0.131063
 -64.710   0.4782714844  0.95960      207.50000 0.7861       2.139513       0.213943
 119.367   0.4782714844  0.75936      213.00000 0.7517       2.482792       0.248270
   5.804   0.4782714844  0.75060     1445.00000 0.8940       1.059878       0.105987
-169.893   0.4782714844  0.79500     1447.00000 0.8701       1.298891       0.129889
 -36.911   0.4782714844  0.79655     3633.50000 0.8660       1.340299       0.134030
 -64.618   0.4829101562  0.96042      207.50000 0.7808       2.192535       0.219245
 119.416   0.4829101562  0.76182      213.00000 0.7462       2.538476       0.253838
   6.014   0.4829101562  0.76354     1445.00000 0.8907       1.092732       0.109272
-169.875   0.4829101562  0.80415     1447.00000 0.8675       1.325016       0.132501
 -43.387   0.4829101562  0.75089     1679.00000 0.7223       2.777175       0.277711
 -36.656   0.4829101562  0.80259     3633.50000 0.8629       1.370540       0.137054
 -64.527   0.4875488281  0.96124      207.50000 0.7754       2.246263       0.224617
 119.463   0.4875488281  0.76422      213.00000 0.7405       2.595041       0.259495
   6.215   0.4875488281  0.77464     1445.00000 0.8874       1.126020       0.112601
-169.855   0.4875488281  0.81184     1447.00000 0.8648       1.351664       0.135166
 -43.432   0.4875488281  0.75775     1679.00000 0.7175       2.824625       0.282456
 -36.411   0.4875488281  0.80831     3633.50000 0.8599       1.401350       0.140135
 119.507   0.4921875000  0.76658      213.00000 0.7348       2.652481       0.265238
   6.407   0.4921875000  0.78483     1445.00000 0.8840       1.159741       0.115973
-169.834   0.4921875000  0.81905     1447.00000 0.8621       1.378833       0.137883
 -43.477   0.4921875000  0.76415     1679.00000 0.7127       2.872628       0.287256
 -36.174   0.4921875000  0.81374     3633.50000 0.8567       1.432728       0.143273
   6.591   0.4968261719  0.79434     1445.00000 0.8806       1.193892       0.119388
-169.811   0.4968261719  0.82600     1447.00000 0.8593       1.406516       0.140651
 -43.522   0.4968261719  0.77006     1679.00000 0.7079       2.921176       0.292111
 -35.946   0.4968261719  0.81890     3633.50000 0.8535       1.464669       0.146467
   6.768   0.5014648438  0.80329     1445.00000 0.8772       1.228470       0.122846
-169.787   0.5014648438  0.83274     1447.00000 0.8565       1.434710       0.143471
 -43.568   0.5014648438  0.77548     1679.00000 0.7030       2.970259       0.297019
 -35.726   0.5014648438  0.82379     3633.50000 0.8503       1.497169       0.149717
2009   5 21 29 45 250
  33.556   0.1210937500  0.78287      567.50000 0.8394       1.605696       0.160563
  35.072   0.1210937500  0.78181      568.00000 0.8381       1.618609       0.161861
  36.400   0.1210937500  0.77932      568.50000 0.8380       1.619962       0.161994
  37.620   0.1210937500  0.77510      569.00000 0.8388       1.612468       0.161237
  38.847   0.1210937500  0.76917      569.50000 0.8401       1.599045       0.159884
  31.728   0.1257324219  0.80342      567.50000 0.8282       1.717647       0.171763
  33.134   0.1257324219  0.80568      568.00000 0.8283       1.717289       0.171728
  34.446   0.1257324219  0.80676      568.50000 0.8299       1.701528       0.170142
  29.857   0.1303710938  0.81262      567.50000 0.8150       1.849979       0.184998
  31.230   0.1303710938  0.81756      568.00000 0.8171       1.829427       0.182935
  27.976   0.1350097656  0.81945      567.50000 0.7994       2.006173       0.200616
  29.400   0.1350097656  0.82558      568.00000 0.8047       1.953010       0.195282
  13.758   0.1350097656  0.75782      778.00000 0.8932       1.068335       0.106823
  26.107   0.1396484375  0.82803      567.50000 0.7812       2.188430       0.218837
  12.757   0.1396484375  0.76878      777.50000 0.8974       1.025908       0.102586
  15.907   0.1396484375  0.79012      778.00000 0.8921       1.079288       0.107916
  12.044   0.1442871094  0.75393      777.00000 0.9044       0.955712       0.095570
  15.036   0.1442871094  0.77777      777.50000 0.8957       1.043417       0.104336
  18.260   0.1442871094  0.79664      778.00000 0.8901       1.099109       0.109896
  21.040   0.1489257812  0.83396      567.00000 0.7131       2.869200       0.286918
 149.811   0.2927246094  0.75819       27.50000 0.7740       2.259895       0.225976
   7.822   0.3020019531  0.80833     1432.50000 0.8343       1.657072       0.165707
   8.233   0.3112792969  0.79144     1432.50000 0.8235       1.764675       0.176467
   8.415   0.3159179688  0.80751     1432.50000 0.8178       1.821518       0.182151
   8.582   0.3205566406  0.81371     1432.50000 0.8120       1.880264       0.188025
   8.733   0.3251953125  0.81641     1432.50000 0.8059       1.940834       0.194082
   8.871   0.3298339844  0.81794     1432.50000 0.7997       2.003156       0.200314
   8.994   0.3344726562  0.81858     1432.50000 0.7933       2.067169       0.206715
   9.104   0.3391113281  0.81851     1432.50000 0.7867       2.132818       0.213279
   9.202   0.3437500000  0.81782     1432.50000 0.7800       2.200057       0.220002
   9.286   0.3483886719  0.80952     1432.50000 0.7731       2.268843       0.226880
 -73.121   0.3483886719  0.76940     3834.00000 0.9050       0.949509       0.094951
   9.359   0.3530273438  0.80717     1432.50000 0.7661       2.339144       0.233910
 -73.364   0.3530273438  0.79133     3834.00000 0.9033       0.967015       0.096701
   9.421   0.3576660156  0.80398     1432.50000 0.7589       2.410929       0.241088
 -73.581   0.3576660156  0.80746     3834.00000 0.9015       0.985448       0.098545
   9.471   0.3623046875  0.79973     1432.50000 0.7516       2.484171       0.248411
 -73.773   0.3623046875  0.81445     3834.00000 0.8995       1.004790       0.100479
   9.511   0.3669433594  0.79418     1432.50000 0.7441       2.558854       0.255879
 -73.943   0.3669433594  0.77814     3834.00000 0.8975       1.025025       0.102502
   9.541   0.3715820312  0.78703     1432.50000 0.7365       2.634958       0.263489
 -74.092   0.3715820312  0.80105     3834.00000 0.8954       1.046140       0.104614
   9.562   0.3762207031  0.77797     1432.50000 0.7288       2.712472       0.271239
 -74.221   0.3762207031  0.87699     3834.00000 0.8932       1.068121       0.106812
  90.858   0.3808593750  0.80952      376.00000 0.9422       0.578274       0.057827
   9.573   0.3808593750  0.80075     1432.50000 0.7209       2.791387       0.279130
  13.340   0.3808593750  0.76599     2731.50000 0.5992       4.008159       0.400811
 -74.333   0.3808593750  0.90244     3834.00000 0.8909       1.090957       0.109095
  91.312   0.3854980469  0.80757      376.00000 0.9402       0.597651       0.059765
   9.575   0.3854980469  0.80016     1432.50000 0.7128       2.871694       0.287160
  13.373   0.3854980469  0.76646     2731.50000 0.5909       4.091189       0.409114
 -74.429   0.3854980469  0.92358     3834.00000 0.8885       1.114640       0.111464
  91.724   0.3901367188  0.80316      376.00000 0.9383       0.617457       0.061745
   9.570   0.3901367188  0.79965     1432.50000 0.7047       2.953391       0.295329
  13.407   0.3901367188  0.76673     2731.50000 0.5823       4.177420       0.417736
 -74.510   0.3901367188  0.94070     3834.00000 0.8861       1.139160       0.113916
  92.098   0.3947753906  0.79641      376.00000 0.9362       0.637682       0.063768
   9.556   0.3947753906  0.79923     1432.50000 0.6964       3.036472       0.303637
  13.443   0.3947753906  0.76681     2731.50000 0.5733       4.266781       0.426671
 -74.577   0.3947753906  0.95085     3834.00000 0.8835       1.164508       0.116450
  92.437   0.3994140625  0.78762      376.00000 0.9342       0.658320       0.065832
   9.535   0.3994140625  0.79890     1432.50000 0.6879       3.120941       0.312083
  13.480   0.3994140625  0.76669     2731.50000 0.5641       4.359210       0.435914
 -74.632   0.3994140625  0.94933     3834.00000 0.8809       1.190678       0.119067
  92.744   0.4040527344  0.77731      376.00000 0.9321       0.679364       0.067936
   9.507   0.4040527344  0.79867     1432.50000 0.6793       3.206799       0.320668
  13.519   0.4040527344  0.76637     2731.50000 0.5545       4.454648       0.445457
 -74.677   0.4040527344  0.93317     3834.00000 0.8782       1.217664       0.121766
  93.024   0.4086914062  0.76626      376.00000 0.9299       0.700808       0.070081
   9.473   0.4086914062  0.79853     1432.50000 0.6706       3.294046       0.329392
  13.558   0.4086914062  0.76586     2731.50000 0.5447       4.553043       0.455295
 -74.711   0.4086914062  0.90527     3834.00000 0.8755       1.245458       0.124545
 -22.976   0.4133300781  0.75802       40.00000 0.9400       0.600042       0.059996
  93.278   0.4133300781  0.75550      376.00000 0.9277       0.722649       0.072265
   9.432   0.4133300781  0.79848     1432.50000 0.6617       3.382687       0.338256
  13.598   0.4133300781  0.76515     2731.50000 0.5346       4.654345       0.465425
 -74.737   0.4133300781  0.87422     3834.00000 0.8726       1.274055       0.127405
 153.549   0.4179687500  0.81749       42.50000 0.9165       0.834900       0.083490
 -49.248   0.4179687500  0.80743     1337.50000 0.8239       1.760673       0.176066
   9.386   0.4179687500  0.82126     1432.50000 0.6527       3.472727       0.347259
 -74.755   0.4179687500  0.95244     3834.00000 0.8697       1.303447       0.130344
 -23.027   0.4226074219  0.75177       40.00000 0.9358       0.641761       0.064167
 153.698   0.4226074219  0.82054       42.50000 0.9149       0.850830       0.085083
 -49.319   0.4226074219  0.80510     1337.50000 0.8196       1.803917       0.180391
   9.335   0.4226074219  0.82208     1432.50000 0.6436       3.564171       0.356403
 -74.766   0.4226074219  0.95262     3834.00000 0.8666       1.333632       0.133362
 -23.041   0.4272460938  0.75720       40.00000 0.9337       0.663341       0.066325
 153.837   0.4272460938  0.82355       42.50000 0.9133       0.867124       0.086712
 -49.381   0.4272460938  0.80092     1337.50000 0.8152       1.848148       0.184814
   9.278   0.4272460938  0.82289     1432.50000 0.6343       3.657024       0.365688
 -74.772   0.4272460938  0.95281     3834.00000 0.8635       1.364600       0.136459
 -23.048   0.4318847656  0.76235       40.00000 0.9315       0.685403       0.068531
 153.966   0.4318847656  0.82651       42.50000 0.9116       0.883778       0.088378
 -49.435   0.4318847656  0.79465     1337.50000 0.8107       1.893358       0.189335
   9.218   0.4318847656  0.82369     1432.50000 0.6249       3.751293       0.375114
 -74.772   0.4318847656  0.95302     3834.00000 0.8604       1.396349       0.139633
 -23.050   0.4365234375  0.76726       40.00000 0.9292       0.707944       0.070785
 154.086   0.4365234375  0.82940       42.50000 0.9099       0.900793       0.090079
 -49.483   0.4365234375  0.78614     1337.50000 0.8060       1.939538       0.193953
   9.153   0.4365234375  0.82447     1432.50000 0.6153       3.846985       0.384683
 -74.767   0.4365234375  0.95325     3834.00000 0.8571       1.428871       0.142885
 -23.046   0.4411621094  0.77195       40.00000 0.9269       0.730966       0.073087
 154.199   0.4411621094  0.83222       42.50000 0.9082       0.918166       0.091816
 -49.524   0.4411621094  0.77551     1337.50000 0.8013       1.986675       0.198667
   9.084   0.4411621094  0.82522     1432.50000 0.6056       3.944108       0.394395
 -74.758   0.4411621094  0.95351     3834.00000 0.8538       1.462159       0.146214
 -23.039   0.4458007812  0.77646       40.00000 0.9246       0.754467       0.075437
 154.303   0.4458007812  0.83496       42.50000 0.9064       0.935896       0.093589
 -49.559   0.4458007812  0.76347     1337.50000 0.7965       2.034763       0.203476
   9.012   0.4458007812  0.82594     1432.50000 0.5957       4.042661       0.404250
 -74.746   0.4458007812  0.95381     3834.00000 0.8504       1.496209       0.149619
 -23.029   0.4504394531  0.78078       40.00000 0.9222       0.778448       0.077835
 154.401   0.4504394531  0.83760       42.50000 0.9046       0.953983       0.095398
 -49.588   0.4504394531  0.75166     1337.50000 0.7916       2.083793       0.208379
   8.937   0.4504394531  0.82662     1432.50000 0.5858       4.142657       0.414249
 -74.731   0.4504394531  0.95413     3834.00000 0.8469       1.531015       0.153099
 -70.226   0.4504394531  0.76171     3841.00000 0.8656       1.343792       0.134378
 -23.016   0.4550781250  0.78494       40.00000 0.9197       0.802908       0.080281
 154.492   0.4550781250  0.84014       42.50000 0.9028       0.972428       0.097243
   8.859   0.4550781250  0.82726     1432.50000 0.5756       4.244098       0.424393
 -74.714   0.4550781250  0.95449     3834.00000 0.8433       1.566570       0.156655
 -70.415   0.4550781250  0.77516     3841.00000 0.8615       1.385484       0.138547
 -23.001   0.4597167969  0.78895       40.00000 0.9172       0.827844       0.082775
 154.577   0.4597167969  0.84258       42.50000 0.9009       0.991226       0.099123
   8.778   0.4597167969  0.82786     1432.50000 0.5653       4.346990       0.434682
 -74.695   0.4597167969  0.95488     3834.00000 0.8397       1.602868       0.160284
 -70.593   0.4597167969  0.78741     3841.00000 0.8572       1.428064       0.142805
 -22.984   0.4643554688  0.77370       40.00000 0.9147       0.853259       0.085316
 154.656   0.4643554688  0.87174       42.50000 0.8990       1.010379       0.101038
   8.695   0.4643554688  0.80994     1432.50000 0.5549       4.451335       0.445117
 139.706   0.4643554688  0.76305     2946.00000 0.6116       3.884257       0.388425
 -74.674   0.4643554688  0.95881     3834.00000 0.8360       1.639901       0.163988
 -70.760   0.4643554688  0.83055     3841.00000 0.8528       1.471524       0.147151
 -22.966   0.4689941406  0.77786       40.00000 0.9121       0.879152       0.087905
 154.730   0.4689941406  0.87439       42.50000 0.8970       1.029887       0.102989
   8.611   0.4689941406  0.81049     1432.50000 0.5443       4.557143       0.455697
 139.821   0.4689941406  0.76795     2946.00000 0.6024       3.975935       0.397593
 -70.918   0.4689941406  0.84029     3841.00000 0.8484       1.515855       0.151584
 -22.947   0.4736328125  0.78188       40.00000 0.9095       0.905519       0.090542
 154.798   0.4736328125  0.87689       42.50000 0.8950       1.049748       0.104975
   8.524   0.4736328125  0.81098     1432.50000 0.5336       4.664412       0.466424
 139.933   0.4736328125  0.77233     2946.00000 0.5931       4.069221       0.406922
 -71.067   0.4736328125  0.84910     3841.00000 0.8439       1.561047       0.156104
   8.437   0.4782714844  0.81141     1432.50000 0.5227       4.773143       0.477297
 140.043   0.4782714844  0.77620     2946.00000 0.5836       4.164104       0.416410
 -71.207   0.4782714844  0.85710     3841.00000 0.8393       1.607089       0.160708
  83.281   0.4829101562  0.76694      466.00000 0.8703       1.296779       0.129676
 -49.684   0.4829101562  0.76781     1337.50000 0.7547       2.452617       0.245262
   8.348   0.4829101562  0.81179     1432.50000 0.5117       4.883341       0.488317
 140.151   0.4829101562  0.77953     2946.00000 0.5739       4.260570       0.426057
 -71.339   0.4829101562  0.86440     3841.00000 0.8346       1.653972       0.165396
  83.375   0.4875488281  0.78844      466.00000 0.8666       1.334057       0.133404
 -49.686   0.4875488281  0.78494     1337.50000 0.7491       2.508864       0.250886
   8.258   0.4875488281  0.81211     1432.50000 0.5005       4.995003       0.499483
 140.257   0.4875488281  0.78226     2946.00000 0.5641       4.358605       0.435860
 -71.463   0.4875488281  0.87107     3841.00000 0.8298       1.701687       0.170168
 -49.686   0.4921875000  0.79982     1337.50000 0.7434       2.565976       0.256598
   8.167   0.4921875000  0.81238     1432.50000 0.4892       5.108130       0.510796
 157.497   0.4921875000  0.85624     1502.50000 0.6684       3.315837       0.331569
 -71.580   0.4921875000  0.87720     3841.00000 0.8250       1.750226       0.175022
 -49.684   0.4968261719  0.81214     1337.50000 0.7376       2.623943       0.262394
   8.076   0.4968261719  0.81259     1432.50000 0.4777       5.222720       0.522255
 157.614   0.4968261719  0.85909     1502.50000 0.6605       3.395044       0.339490
 -71.691   0.4968261719  0.88286     3841.00000 0.8200       1.799578       0.179957
 -49.680   0.5014648438  0.82204     1337.50000 0.7317       2.682759       0.268276
   7.984   0.5014648438  0.81277     1432.50000 0.4661       5.338770       0.533860
 157.730   0.5014648438  0.86187     1502.50000 0.6525       3.475442       0.347530
 -71.795   0.5014648438  0.88808     3841.00000 0.8150       1.849734       0.184973
2009   5  1  7 15 250
 -28.477   0.1071777344  0.78856      472.50000 0.9487       0.513113       0.051309
 -21.833   0.1071777344  0.79492      473.00000 0.9384       0.615570       0.061557
 -16.196   0.1071777344  0.79868      473.50000 0.9301       0.698662       0.069866
 -22.508   0.1118164062  0.81362      473.00000 0.9388       0.612284       0.061227
  -6.733   0.1118164062  0.79626      479.00000 0.9162       0.837925       0.083781
  -8.951   0.1118164062  0.77235      479.50000 0.9098       0.902071       0.090197
  -7.568   0.1164550781  0.82480      479.50000 0.9051       0.949130       0.094903
  -9.456   0.1164550781  0.80353      480.00000 0.8953       1.047449       0.104739
  -6.009   0.1210937500  0.90642      479.50000 0.9018       0.981696       0.098161
  -8.157   0.1210937500  0.89235      480.00000 0.8909       1.090903       0.109085
  -6.705   0.1257324219  0.90101      480.00000 0.8883       1.116712       0.111668
  -8.848   0.1257324219  0.86677      480.50000 0.8725       1.275361       0.127536
  -4.954   0.1303710938  0.87817      480.00000 0.8884       1.116136       0.111613
  -7.786   0.1303710938  0.86287      480.50000 0.8700       1.300421       0.130042
  -9.979   0.1303710938  0.82189      481.00000 0.8473       1.527257       0.152719
  -6.483   0.1350097656  0.83182      480.50000 0.8711       1.289275       0.128924
  -9.521   0.1350097656  0.80573      481.00000 0.8428       1.572515       0.157232
 -32.669   0.2973632812  0.76414     1214.50000 0.9414       0.585528       0.058552
 -38.649   0.3020019531  0.77245     1214.00000 0.9603       0.397226       0.039721
 -31.898   0.3020019531  0.76580     1214.50000 0.9419       0.580944       0.058094
 -38.050   0.3066406250  0.78464     1214.00000 0.9609       0.391165       0.039115
 -31.189   0.3066406250  0.77897     1214.50000 0.9423       0.576614       0.057661
 -37.564   0.3112792969  0.79519     1214.00000 0.9615       0.384942       0.038493
 -30.539   0.3112792969  0.79032     1214.50000 0.9427       0.572513       0.057251
 -37.183   0.3159179688  0.80417     1214.00000 0.9621       0.378568       0.037856
 -29.943   0.3159179688  0.79996     1214.50000 0.9431       0.568625       0.056862
 -36.901   0.3205566406  0.81165     1214.00000 0.9628       0.372058       0.037205
 -29.398   0.3205566406  0.80795     1214.50000 0.9435       0.564937       0.056494
 -36.714   0.3251953125  0.81613     1214.00000 0.9635       0.365428       0.036542
 -28.900   0.3251953125  0.81364     1214.50000 0.9439       0.561440       0.056144
 -36.617   0.3298339844  0.82113     1214.00000 0.9641       0.358697       0.035868
 -28.447   0.3298339844  0.81786     1214.50000 0.9442       0.558127       0.055813
 -36.607   0.3344726562  0.82479     1214.00000 0.9648       0.351885       0.035187
 -28.034   0.3344726562  0.82060     1214.50000 0.9445       0.554994       0.055499
 -36.680   0.3391113281  0.82711     1214.00000 0.9655       0.345014       0.034500
 -27.660   0.3391113281  0.82182     1214.50000 0.9448       0.552039       0.055204
 -36.834   0.3437500000  0.82807     1214.00000 0.9662       0.338104       0.033809
 -27.321   0.3437500000  0.82146     1214.50000 0.9451       0.549260       0.054926
 -37.066   0.3483886719  0.83314     1214.00000 0.9669       0.331175       0.033116
 -27.015   0.3483886719  0.83620     1214.50000 0.9453       0.546656       0.054666
 -37.375   0.3530273438  0.83123     1214.00000 0.9676       0.324248       0.032423
 -26.740   0.3530273438  0.83305     1214.50000 0.9456       0.544227       0.054423
 -37.759   0.3576660156  0.82790     1214.00000 0.9683       0.317340       0.031733
