-103.938   0.1860351562  0.82984     3722.00000 0.8452       1.547723       0.154753
-104.071   0.1906738281  0.84381     3722.00000 0.8449       1.551450       0.155128
-104.210   0.1953125000  0.86266     3722.00000 0.8440       1.560275       0.156011
-104.356   0.1999511719  0.87297     3722.00000 0.8426       1.573852       0.157370
-104.508   0.2045898438  0.88320     3722.00000 0.8408       1.591907       0.159177
-104.666   0.2092285156  0.88867     3722.00000 0.8386       1.614215       0.161408
-106.915   0.2138671875  0.76177     3714.50000 0.9670       0.329790       0.032979
-104.828   0.2138671875  0.88857     3722.00000 0.8360       1.640581       0.164046
-106.080   0.2185058594  0.77711     3714.50000 0.9671       0.328897       0.032890
-104.993   0.2185058594  0.88694     3722.00000 0.8329       1.670833       0.167071
 -51.675   0.2231445312  0.78684     3466.50000 0.8372       1.627743       0.162766
-105.417   0.2231445312  0.78636     3714.50000 0.9676       0.324237       0.032424
-105.161   0.2231445312  0.87706     3722.00000 0.8295       1.704808       0.170470
 -65.137   0.2231445312  0.79788     3725.00000 0.9752       0.247638       0.024764
 -63.472   0.2231445312  0.75998     3828.00000 0.8260       1.740386       0.174031
 -83.736   0.2277832031  0.75171     2249.50000 0.7393       2.607026       0.260700
-104.885   0.2277832031  0.80026     3714.50000 0.9684       0.316370       0.031637
-105.328   0.2277832031  0.86759     3722.00000 0.8258       1.742343       0.174224
 -63.223   0.2277832031  0.78553     3725.00000 0.9761       0.239399       0.023940
 -63.585   0.2277832031  0.76114     3828.00000 0.8236       1.763958       0.176388
 -83.564   0.2324218750  0.76782     2249.50000 0.7470       2.530235       0.253022
-104.457   0.2324218750  0.81259     3714.50000 0.9694       0.305844       0.030584
-105.495   0.2324218750  0.85456     3722.00000 0.8217       1.783273       0.178317
 -60.893   0.2324218750  0.76669     3725.00000 0.9770       0.230316       0.023032
 -63.664   0.2324218750  0.76158     3828.00000 0.8211       1.788715       0.178864
 -83.419   0.2370605469  0.77967     2249.50000 0.7539       2.461115       0.246110
-104.109   0.2370605469  0.81548     3714.50000 0.9707       0.293184       0.029318
-108.380   0.2370605469  0.77545     3717.00000 0.8338       1.661830       0.166177
-105.660   0.2370605469  0.83077     3722.00000 0.8173       1.827423       0.182733
 -58.110   0.2370605469  0.78107     3725.00000 0.9779       0.220654       0.022065
 -63.711   0.2370605469  0.77715     3828.00000 0.8185       1.814708       0.181463
 -66.849   0.2370605469  0.76138     3828.50000 0.8174       1.825689       0.182567
-105.308   0.2416992188  0.81551     3713.00000 0.5737       4.263420       0.426342
-103.828   0.2416992188  0.82609     3714.50000 0.9721       0.278866       0.027886
-108.242   0.2416992188  0.77992     3717.00000 0.8350       1.650292       0.165023
-105.821   0.2416992188  0.81067     3722.00000 0.8125       1.874605       0.187451
 -63.727   0.2416992188  0.77682     3828.00000 0.8158       1.841962       0.184189
 -66.918   0.2416992188  0.76144     3828.50000 0.8145       1.854717       0.185470
-103.600   0.2463378906  0.83583     3714.50000 0.9737       0.263316       0.026331
-108.109   0.2463378906  0.78119     3717.00000 0.8360       1.640373       0.164032
-105.977   0.2463378906  0.78810     3722.00000 0.8075       1.924617       0.192453
 -63.715   0.2463378906  0.77578     3828.00000 0.8130       1.870487       0.187042
 -66.973   0.2463378906  0.76082     3828.50000 0.8114       1.885606       0.188559
-103.416   0.2509765625  0.83555     3714.50000 0.9753       0.246897       0.024689
-107.980   0.2509765625  0.82270     3717.00000 0.8368       1.632089       0.163203
 -63.677   0.2509765625  0.79386     3828.00000 0.8100       1.900274       0.190021
 -67.013   0.2509765625  0.78896     3828.50000 0.8082       1.918374       0.191836
-103.270   0.2556152344  0.83808     3714.50000 0.9770       0.229914       0.022991
-107.855   0.2556152344  0.81574     3717.00000 0.8375       1.625445       0.162539
 -63.615   0.2556152344  0.79213     3828.00000 0.8069       1.931298       0.193123
 -67.042   0.2556152344  0.78885     3828.50000 0.8047       1.953022       0.195301
-103.156   0.2602539062  0.81515     3714.50000 0.9787       0.212607       0.021260
-107.735   0.2602539062  0.78251     3717.00000 0.8380       1.620434       0.162038
 -63.532   0.2602539062  0.78969     3828.00000 0.8037       1.963516       0.196346
-107.618   0.2648925781  0.79526     3717.00000 0.8383       1.617041       0.161699
 -63.429   0.2648925781  0.81508     3828.00000 0.8003       1.996875       0.199682
-103.013   0.2695312500  0.77493     3714.50000 0.9822       0.177738       0.017774
 -63.308   0.2695312500  0.81251     3828.00000 0.7969       2.031304       0.203125
-106.467   0.2741699219  0.86588     3713.50000 0.7467       2.532737       0.253271
-102.981   0.2741699219  0.86591     3714.50000 0.9840       0.160416       0.016041
 -63.171   0.2741699219  0.80934     3828.00000 0.7933       2.066725       0.206668
-106.570   0.2788085938  0.88536     3713.50000 0.7464       2.536081       0.253605
 -63.020   0.2788085938  0.80557     3828.00000 0.7897       2.103045       0.210300
-106.667   0.2834472656  0.88880     3713.50000 0.7462       2.537587       0.253755
 -62.857   0.2834472656  0.84433     3828.00000 0.7860       2.140166       0.214013
-122.189   0.2834472656  0.75924     4003.00000 0.8483       1.517072       0.151707
-106.756   0.2880859375  0.89118     3713.50000 0.7462       2.538373       0.253834
 -62.682   0.2880859375  0.84125     3828.00000 0.7822       2.177985       0.217795
 -69.886   0.2880859375  0.78422     3832.00000 0.8809       1.190751       0.119058
-122.511   0.2880859375  0.77004     4003.00000 0.8485       1.514584       0.151458
  63.574   0.2927246094  0.75192     3709.00000 0.8204       1.796113       0.179591
-106.838   0.2927246094  0.87283     3713.50000 0.7461       2.539348       0.253931
 -69.704   0.2927246094  0.78123     3832.00000 0.8827       1.172700       0.117254
-122.823   0.2927246094  0.78010     4003.00000 0.8487       1.513280       0.151327
  63.982   0.2973632812  0.75870     3709.00000 0.8165       1.834872       0.183468
-106.912   0.2973632812  0.77453     3713.50000 0.7459       2.541240       0.254120
 -69.526   0.2973632812  0.77802     3832.00000 0.8845       1.155344       0.115519
-123.124   0.2973632812  0.78939     4003.00000 0.8487       1.513090       0.151308
 -69.351   0.3020019531  0.78352     3832.00000 0.8861       1.138680       0.113853
-123.413   0.3020019531  0.83597     4003.00000 0.8486       1.513950       0.151394
-107.039   0.3066406250  0.85881     3713.50000 0.7450       2.549860       0.254982
 -69.180   0.3066406250  0.77972     3832.00000 0.8877       1.122705       0.112257
-123.691   0.3066406250  0.84352     4003.00000 0.8484       1.515802       0.151579
 -69.011   0.3112792969  0.77574     3832.00000 0.8893       1.107410       0.110728
-123.957   0.3112792969  0.85023     4003.00000 0.8481       1.518594       0.151858
 -68.845   0.3159179688  0.77158     3832.00000 0.8907       1.092787       0.109266
-124.211   0.3159179688  0.85610     4003.00000 0.8478       1.522276       0.152225
 -68.681   0.3205566406  0.76726     3832.00000 0.8921       1.078825       0.107871
-124.454   0.3205566406  0.86112     4003.00000 0.8473       1.526803       0.152678
 -80.423   0.3251953125  0.75762      156.00000 0.9048       0.952118       0.095210
 -62.695   0.3251953125  0.75466     1322.00000 0.8615       1.385354       0.138532
 -68.519   0.3251953125  0.77713     3832.00000 0.8935       1.065512       0.106540
-124.685   0.3251953125  0.87581     4003.00000 0.8468       1.532131       0.153210
 -62.648   0.3298339844  0.75679     1322.00000 0.8619       1.381433       0.138140
 -68.360   0.3298339844  0.77224     3832.00000 0.8947       1.052832       0.105273
-124.904   0.3298339844  0.87776     4003.00000 0.8462       1.538223       0.153819
 -62.614   0.3344726562  0.75811     1322.00000 0.8622       1.378468       0.137844
 -68.203   0.3344726562  0.76721     3832.00000 0.8959       1.040772       0.104067
-125.112   0.3344726562  0.87889     4003.00000 0.8455       1.545042       0.154501
 -62.593   0.3391113281  0.75860     1322.00000 0.8624       1.376432       0.137640
 -68.047   0.3391113281  0.76204     3832.00000 0.8971       1.029315       0.102922
-125.309   0.3391113281  0.87917     4003.00000 0.8447       1.552552       0.155251
 -62.582   0.3437500000  0.75822     1322.00000 0.8625       1.375301       0.137527
-108.407   0.3437500000  0.75337     3721.50000 0.6986       3.014324       0.301422
 -67.893   0.3437500000  0.75675     3832.00000 0.8982       1.018446       0.101836
-125.496   0.3437500000  0.87859     4003.00000 0.8439       1.560725       0.156068
 -79.052   0.3483886719  0.77908      156.00000 0.9091       0.909477       0.090946
-108.467   0.3483886719  0.75601     3721.50000 0.6918       3.082482       0.308238
 -67.741   0.3483886719  0.77937     3832.00000 0.8992       1.008148       0.100806
-125.672   0.3483886719  0.89059     4003.00000 0.8431       1.569527       0.156948
 -78.800   0.3530273438  0.78406      156.00000 0.9098       0.902124       0.090210
-108.522   0.3530273438  0.76490     3721.50000 0.6849       3.151574       0.315148
 -67.590   0.3530273438  0.77375     3832.00000 0.9002       0.998404       0.099832
-125.838   0.3530273438  0.88562     4003.00000 0.8421       1.578935       0.157889
 -78.556   0.3576660156  0.78909      156.00000 0.9105       0.895117       0.089510
-108.572   0.3576660156  0.76658     3721.50000 0.6778       3.221626       0.322154
 -67.440   0.3576660156  0.76803     3832.00000 0.9011       0.989198       0.098912
-125.994   0.3576660156  0.88007     4003.00000 0.8411       1.588920       0.158887
 -78.321   0.3623046875  0.79268      156.00000 0.9112       0.888439       0.088842
 -92.736   0.3623046875  0.78117     2796.50000 0.8881       1.119264       0.111915
-108.618   0.3623046875  0.76002     3721.50000 0.6707       3.292665       0.329258
 -67.291   0.3623046875  0.76222     3832.00000 0.9020       0.980513       0.098044
-126.142   0.3623046875  0.87397     4003.00000 0.8401       1.599460       0.159940
 -78.094   0.3669433594  0.79453      156.00000 0.9118       0.882071       0.088205
 -92.832   0.3669433594  0.77907     2796.50000 0.8887       1.112804       0.111269
 -67.144   0.3669433594  0.75633     3832.00000 0.9028       0.972331       0.097226
-126.280   0.3669433594  0.86730     4003.00000 0.8390       1.610531       0.161047
 -77.877   0.3715820312  0.79481      156.00000 0.9124       0.875996       0.087597
 -92.927   0.3715820312  0.77682     2796.50000 0.8894       1.106335       0.110623
 -66.997   0.3715820312  0.75037     3832.00000 0.9035       0.964637       0.096457
-126.410   0.3715820312  0.86008     4003.00000 0.8378       1.622114       0.162205
 -77.668   0.3762207031  0.79379      156.00000 0.9130       0.870196       0.087017
 -93.022   0.3762207031  0.77442     2796.50000 0.8900       1.099889       0.109978
-126.532   0.3762207031  0.85228     4003.00000 0.8366       1.634185       0.163412
 -77.469   0.3808593750  0.78271      156.00000 0.9135       0.864654       0.086463
 -77.108   0.3808593750  0.78042      156.50000 0.9070       0.929848       0.092984
 -95.113   0.3808593750  0.76743     2796.00000 0.8706       1.293562       0.129356
 -93.118   0.3808593750  0.85461     2796.50000 0.8907       1.093494       0.109339
 -74.586   0.3808593750  0.78779     3664.50000 0.8171       1.828594       0.182856
 -66.706   0.3808593750  0.79414     3832.00000 0.9049       0.950646       0.095058
-126.646   0.3808593750  0.84642     4003.00000 0.8353       1.646731       0.164666
 -77.279   0.3854980469  0.77883      156.00000 0.9141       0.859355       0.085933
 -76.896   0.3854980469  0.77775      156.50000 0.9076       0.924035       0.092403
 -95.214   0.3854980469  0.76437     2796.00000 0.8716       1.283549       0.128355
 -93.215   0.3854980469  0.85067     2796.50000 0.8913       1.087172       0.108707
 -74.610   0.3854980469  0.78819     3664.50000 0.8168       1.832389       0.183236
 -66.562   0.3854980469  0.78869     3832.00000 0.9056       0.944316       0.094425
-126.754   0.3854980469  0.83691     4003.00000 0.8340       1.659731       0.165966
 -77.098   0.3901367188  0.77436      156.00000 0.9146       0.854284       0.085426
 -76.695   0.3901367188  0.77435      156.50000 0.9082       0.918481       0.091847
 -95.317   0.3901367188  0.76122     2796.00000 0.8726       1.273674       0.127367
 -93.313   0.3901367188  0.84650     2796.50000 0.8919       1.080943       0.108084
 -74.631   0.3901367188  0.78834     3664.50000 0.8163       1.836645       0.183661
 -66.418   0.3901367188  0.78323     3832.00000 0.9062       0.938411       0.093835
-126.854   0.3901367188  0.82682     4003.00000 0.8327       1.673172       0.167309
 -76.926   0.3947753906  0.76941      156.00000 0.9151       0.849425       0.084940
 -76.502   0.3947753906  0.77035      156.50000 0.9087       0.913166       0.091316
 -95.424   0.3947753906  0.75798     2796.00000 0.8736       1.263973       0.126397
 -93.413   0.3947753906  0.84212     2796.50000 0.8925       1.074822       0.107472
 -74.647   0.3947753906  0.78825     3664.50000 0.8159       1.841353       0.184132
-107.309   0.3947753906  0.88018     3713.50000 0.6869       3.131001       0.313094
 -66.274   0.3947753906  0.77775     3832.00000 0.9067       0.932913       0.093285
-126.949   0.3947753906  0.81613     4003.00000 0.8313       1.687037       0.168695
 -76.764   0.3994140625  0.76404      156.00000 0.9155       0.844764       0.084473
 -76.320   0.3994140625  0.76583      156.50000 0.9092       0.908071       0.090806
 -95.534   0.3994140625  0.75466     2796.00000 0.8746       1.254481       0.125448
 -93.514   0.3994140625  0.83753     2796.50000 0.8931       1.068823       0.106872
 -74.658   0.3994140625  0.78793     3664.50000 0.8154       1.846509       0.184648
-107.302   0.3994140625  0.89850     3713.50000 0.6814       3.185584       0.318552
 -66.131   0.3994140625  0.77228     3832.00000 0.9072       0.927809       0.092775
-127.037   0.3994140625  0.80482     4003.00000 0.8299       1.701314       0.170123
 -76.611   0.4040527344  0.75831      156.00000 0.9160       0.840288       0.084026
 -76.148   0.4040527344  0.76085      156.50000 0.9097       0.903176       0.090317
 -95.649   0.4040527344  0.75128     2796.00000 0.8755       1.245219       0.124522
 -93.617   0.4040527344  0.83275     2796.50000 0.8937       1.062956       0.106285
 -74.666   0.4040527344  0.78736     3664.50000 0.8148       1.852109       0.185208
-107.295   0.4040527344  0.91329     3713.50000 0.6758       3.242286       0.324222
 -65.988   0.4040527344  0.76681     3832.00000 0.9077       0.923084       0.092302
-127.120   0.4040527344  0.79287     4003.00000 0.8284       1.715986       0.171589
 -76.468   0.4086914062  0.75222      156.00000 0.9164       0.835983       0.083595
 -75.986   0.4086914062  0.75544      156.50000 0.9102       0.898466       0.089846
 -93.722   0.4086914062  0.82779     2796.50000 0.8943       1.057228       0.105713
 -74.670   0.4086914062  0.78656     3664.50000 0.8142       1.858149       0.185812
-107.288   0.4086914062  0.92490     3713.50000 0.6699       3.301074       0.330101
 -65.845   0.4086914062  0.76137     3832.00000 0.9081       0.918724       0.091866
-127.198   0.4086914062  0.78031     4003.00000 0.8269       1.731047       0.173095
 -93.829   0.4133300781  0.82266     2796.50000 0.8948       1.051647       0.105155
-107.281   0.4133300781  0.93399     3713.50000 0.6638       3.361914       0.336185
 -65.702   0.4133300781  0.75596     3832.00000 0.9085       0.914716       0.091466
-127.271   0.4133300781  0.76714     4003.00000 0.8254       1.746480       0.174638
 -76.208   0.4179687500  0.77516      156.00000 0.9172       0.827841       0.082781
 -74.789   0.4179687500  0.76567      157.00000 0.8973       1.027503       0.102735
 -96.016   0.4179687500  0.80640     2796.00000 0.8781       1.218990       0.121899
 -93.938   0.4179687500  0.82204     2796.50000 0.8954       1.046217       0.104612
-124.040   0.4179687500  0.77004     3272.50000 0.8806       1.194026       0.119399
-107.274   0.4179687500  0.97761     3713.50000 0.6575       3.424775       0.342471
 -65.558   0.4179687500  0.82973     3832.00000 0.9089       0.911045       0.091099
 -76.092   0.4226074219  0.76867      156.00000 0.9176       0.823981       0.082395
 -96.146   0.4226074219  0.80058     2796.00000 0.8789       1.210801       0.121080
 -94.048   0.4226074219  0.81752     2796.50000 0.8959       1.040940       0.104084
-124.108   0.4226074219  0.78402     3272.50000 0.8785       1.214912       0.121488
-107.267   0.4226074219  0.97808     3713.50000 0.6510       3.489626       0.348955
 -65.415   0.4226074219  0.82542     3832.00000 0.9092       0.907700       0.090764
 -75.985   0.4272460938  0.76138      156.00000 0.9180       0.820246       0.082021
 -96.281   0.4272460938  0.79462     2796.00000 0.8797       1.202899       0.120290
 -94.161   0.4272460938  0.81288     2796.50000 0.8964       1.035820       0.103572
-124.173   0.4272460938  0.79361     3272.50000 0.8764       1.236174       0.123614
-107.261   0.4272460938  0.97850     3713.50000 0.6444       3.556439       0.355636
 -65.271   0.4272460938  0.82114     3832.00000 0.9095       0.904668       0.090461
 -75.886   0.4318847656  0.75300      156.00000 0.9183       0.816628       0.081659
 -96.420   0.4318847656  0.78854     2796.00000 0.8805       1.195286       0.119529
 -94.276   0.4318847656  0.80813     2796.50000 0.8969       1.030857       0.103076
-124.236   0.4318847656  0.79995     3272.50000 0.8742       1.257813       0.125778
-107.254   0.4318847656  0.97888     3713.50000 0.6375       3.625185       0.362511
 -65.127   0.4318847656  0.81689     3832.00000 0.9098       0.901937       0.090188
 -96.564   0.4365234375  0.78234     2796.00000 0.8812       1.187961       0.118796
 -94.393   0.4365234375  0.80326     2796.50000 0.8974       1.026052       0.102595
-124.297   0.4365234375  0.80365     3272.50000 0.8720       1.279828       0.127979
-107.249   0.4365234375  0.97922     3713.50000 0.6304       3.695835       0.369576
  73.877   0.4365234375  0.95700     3715.00000 0.8661       1.339118       0.133909
 -64.982   0.4365234375  0.81269     3832.00000 0.9101       0.899495       0.089944
 -96.711   0.4411621094  0.77603     2796.00000 0.8819       1.180923       0.118092
 -94.512   0.4411621094  0.79828     2796.50000 0.8979       1.021405       0.102130
-124.357   0.4411621094  0.80501     3272.50000 0.8698       1.302221       0.130218
-107.243   0.4411621094  0.97953     3713.50000 0.6232       3.768362       0.376828
  73.873   0.4411621094  0.95998     3715.00000 0.8612       1.387795       0.138776
 -64.837   0.4411621094  0.80854     3832.00000 0.9103       0.897331       0.089727
 -96.862   0.4458007812  0.76961     2796.00000 0.8826       1.174168       0.117417
 -94.632   0.4458007812  0.79319     2796.50000 0.8983       1.016913       0.101681
-124.414   0.4458007812  0.80407     3272.50000 0.8675       1.324991       0.132495
-107.238   0.4458007812  0.97981     3713.50000 0.6157       3.842737       0.384265
  73.866   0.4458007812  0.96252     3715.00000 0.8563       1.437367       0.143733
 -64.692   0.4458007812  0.80443     3832.00000 0.9105       0.895435       0.089538
 -97.018   0.4504394531  0.76309     2796.00000 0.8832       1.167692       0.116769
 -94.755   0.4504394531  0.78800     2796.50000 0.8988       1.012576       0.101247
-124.469   0.4504394531  0.80067     3272.50000 0.8652       1.348139       0.134810
-107.234   0.4504394531  0.98006     3713.50000 0.6081       3.918933       0.391884
  73.857   0.4504394531  0.96471     3715.00000 0.8512       1.487839       0.148780
 -64.545   0.4504394531  0.80038     3832.00000 0.9106       0.893795       0.089374
 -97.177   0.4550781250  0.75647     2796.00000 0.8839       1.161491       0.116149
 -94.879   0.4550781250  0.78270     2796.50000 0.8992       1.008390       0.100829
-124.523   0.4550781250  0.79450     3272.50000 0.8628       1.371663       0.137163
-107.230   0.4550781250  0.98028     3713.50000 0.6003       3.996918       0.399683
  73.847   0.4550781250  0.96660     3715.00000 0.8461       1.539217       0.153918
 -64.398   0.4550781250  0.79637     3832.00000 0.9108       0.892402       0.089234
-125.161   0.4550781250  0.76389     3850.50000 0.9590       0.410075       0.041002
 -95.005   0.4597167969  0.77729     2796.50000 0.8996       1.004355       0.100425
-124.575   0.4597167969  0.78512     3272.50000 0.8604       1.395565       0.139553
-107.226   0.4597167969  0.98049     3713.50000 0.5923       4.076668       0.407658
  73.835   0.4597167969  0.96826     3715.00000 0.8409       1.591505       0.159146
 -64.251   0.4597167969  0.79242     3832.00000 0.9109       0.891247       0.089119
-124.205   0.4597167969  0.77429     3850.50000 0.9570       0.429828       0.042978
-171.718   0.4643554688  0.87791     2548.50000 0.8396       1.603845       0.160369
 -97.506   0.4643554688  0.75143     2796.00000 0.8850       1.149884       0.114988
 -95.132   0.4643554688  0.80592     2796.50000 0.9000       1.000467       0.100036
-124.626   0.4643554688  0.76067     3272.50000 0.8580       1.419843       0.141980
-107.224   0.4643554688  0.98525     3713.50000 0.5842       4.158150       0.415805
  73.821   0.4643554688  0.96758     3715.00000 0.8355       1.644707       0.164466
 -64.102   0.4643554688  0.84751     3832.00000 0.9110       0.890319       0.089026
-123.311   0.4643554688  0.79306     3850.50000 0.9550       0.450062       0.045002
  80.714   0.4643554688  0.78812     3851.00000 0.9527       0.472767       0.047272
 -75.396   0.4689941406  0.76057      156.00000 0.9209       0.790842       0.079080
  85.283   0.4689941406  0.80184     1351.50000 0.6309       3.690862       0.369069
-171.813   0.4689941406  0.87787     2548.50000 0.8389       1.610853       0.161069
 -95.260   0.4689941406  0.80102     2796.50000 0.9003       0.996723       0.099662
  73.807   0.4689941406  0.96902     3715.00000 0.8301       1.698824       0.169877
 -63.953   0.4689941406  0.84421     3832.00000 0.9110       0.889610       0.088955
-122.476   0.4689941406  0.80172     3850.50000 0.9529       0.470775       0.047074
 -75.369   0.4736328125  0.81460      156.00000 0.9212       0.787906       0.078787
 -74.707   0.4736328125  0.78786      156.50000 0.9156       0.843633       0.084362
  85.205   0.4736328125  0.80633     1351.50000 0.6249       3.751373       0.375119
-171.908   0.4736328125  0.87779     2548.50000 0.8382       1.618004       0.161782
 -95.390   0.4736328125  0.79601     2796.50000 0.9007       0.993120       0.099301
  73.791   0.4736328125  0.97030     3715.00000 0.8246       1.753860       0.175380
 -63.803   0.4736328125  0.84095     3832.00000 0.9111       0.889112       0.088905
-121.694   0.4736328125  0.80941     3850.50000 0.9508       0.491962       0.049193
 -75.350   0.4782714844  0.83843      156.00000 0.9215       0.785013       0.078497
 -74.681   0.4782714844  0.81253      156.50000 0.9160       0.840050       0.084004
  85.129   0.4782714844  0.81039     1351.50000 0.6188       3.812550       0.381235
-172.003   0.4782714844  0.87762     2548.50000 0.8375       1.625292       0.162510
 -95.521   0.4782714844  0.79086     2796.50000 0.9010       0.989653       0.098955
  73.774   0.4782714844  0.97145     3715.00000 0.8190       1.809816       0.180976
 -63.652   0.4782714844  0.83773     3832.00000 0.9111       0.888815       0.088875
-120.961   0.4782714844  0.81621     3850.50000 0.9486       0.513623       0.051359
 -75.337   0.4829101562  0.84552      156.00000 0.9218       0.782160       0.078212
 -74.664   0.4829101562  0.82077      156.50000 0.9164       0.836465       0.083646
  85.055   0.4829101562  0.81406     1351.50000 0.6126       3.874382       0.387417
-172.097   0.4829101562  0.87737     2548.50000 0.8367       1.632711       0.163251
 -95.654   0.4829101562  0.78559     2796.50000 0.9014       0.986322       0.098621
  73.756   0.4829101562  0.97248     3715.00000 0.8133       1.866691       0.186663
 -63.500   0.4829101562  0.83454     3832.00000 0.9111       0.888712       0.088865
-120.273   0.4829101562  0.82220     3850.50000 0.9464       0.535756       0.053573
 -75.331   0.4875488281  0.84554      156.00000 0.9221       0.779340       0.077930
 -74.654   0.4875488281  0.82211      156.50000 0.9167       0.832872       0.083286
  84.984   0.4875488281  0.81735     1351.50000 0.6063       3.936857       0.393664
-172.191   0.4875488281  0.87700     2548.50000 0.8360       1.640260       0.164004
 -95.787   0.4875488281  0.78018     2796.50000 0.9017       0.983118       0.098301
  73.738   0.4875488281  0.97341     3715.00000 0.8076       1.924486       0.192442
 -63.348   0.4875488281  0.83140     3832.00000 0.9111       0.888796       0.088873
 -75.332   0.4921875000  0.84264      156.00000 0.9223       0.776551       0.077651
 -74.653   0.4921875000  0.82057      156.50000 0.9171       0.829264       0.082925
  84.914   0.4921875000  0.82031     1351.50000 0.6000       3.999965       0.399974
-172.284   0.4921875000  0.87649     2548.50000 0.8352       1.647930       0.164770
 -95.921   0.4921875000  0.77464     2796.50000 0.9020       0.980043       0.097993
  73.719   0.4921875000  0.97426     3715.00000 0.8017       1.983201       0.198313
 -63.194   0.4921875000  0.82829     3832.00000 0.9111       0.889059       0.088899
 -75.340   0.4968261719  0.83848      156.00000 0.9226       0.773789       0.077375
 -74.659   0.4968261719  0.81780      156.50000 0.9174       0.825635       0.082563
  84.847   0.4968261719  0.82295     1351.50000 0.5937       4.063691       0.406345
 -96.055   0.4968261719  0.76895     2796.50000 0.9023       0.977088       0.097698
  73.699   0.4968261719  0.97503     3715.00000 0.7957       2.042834       0.204276
 -63.040   0.4968261719  0.82522     3832.00000 0.9111       0.889493       0.088943
 -75.353   0.5014648438  0.83380      156.00000 0.9229       0.771048       0.077100
 -74.672   0.5014648438  0.81451      156.50000 0.9178       0.821981       0.082197
  84.781   0.5014648438  0.82530     1351.50000 0.5872       4.128021       0.412777
 -96.191   0.5014648438  0.76312     2796.50000 0.9026       0.974252       0.097414
  57.700   0.5014648438  0.75637     3270.50000 0.9510       0.490302       0.049029
-124.976   0.5014648438  0.76963     3272.50000 0.8373       1.627513       0.162747
  73.679   0.5014648438  0.97574     3715.00000 0.7897       2.103383       0.210330
 -62.885   0.5014648438  0.82219     3832.00000 0.9110       0.890093       0.089002
2009  12  5 39 35 350
-112.134   0.1489257812  0.86207     2036.00000 0.7734       2.265603       0.226560
  82.133   0.1628417969  0.77385     2043.00000 0.8154       1.846379       0.184629
-132.383   0.1860351562  0.91222     2888.50000 0.7885       2.115438       0.211532
-135.799   0.1860351562  0.91204     2889.00000 0.8032       1.968309       0.196830
-134.686   0.1906738281  0.91332     2889.00000 0.8073       1.927279       0.192726
-133.683   0.1953125000  0.90902     2889.00000 0.8126       1.874016       0.187399
-106.388   0.1999511719  0.89433      926.00000 0.8119       1.880692       0.188069
-107.729   0.1999511719  0.88843      926.50000 0.8096       1.904280       0.190428
-106.916   0.2045898438  0.89694      926.00000 0.8102       1.897818       0.189781
-108.324   0.2045898438  0.88736      926.50000 0.8085       1.915024       0.191502
-105.108   0.2092285156  0.90509      925.50000 0.8106       1.894387       0.189436
-107.489   0.2092285156  0.89358      926.00000 0.8090       1.910295       0.191028
-108.973   0.2092285156  0.88380      926.50000 0.8079       1.920776       0.192077
-105.587   0.2138671875  0.90883      925.50000 0.8087       1.913376       0.191331
-108.106   0.2138671875  0.89733      926.00000 0.8082       1.918007       0.191796
-109.674   0.2138671875  0.88460      926.50000 0.8078       1.921598       0.192159
-110.386   0.2138671875  0.87436      927.00000 0.8104       1.895647       0.189564
-106.095   0.2185058594  0.90470      925.50000 0.8072       1.928249       0.192813
-108.766   0.2185058594  0.89303      926.00000 0.8079       1.920932       0.192085
-110.426   0.2185058594  0.88012      926.50000 0.8082       1.917664       0.191764
-111.153   0.2185058594  0.86971      927.00000 0.8110       1.889511       0.188951
-106.630   0.2231445312  0.90271      925.50000 0.8061       1.938814       0.193862
-109.469   0.2231445312  0.89528      926.00000 0.8081       1.919152       0.191901
-111.230   0.2231445312  0.88360      926.50000 0.8091       1.909247       0.190920
-111.968   0.2231445312  0.87080      927.00000 0.8121       1.879409       0.187941
-112.082   0.2277832031  0.87819      926.50000 0.8103       1.896715       0.189664
-112.833   0.2277832031  0.86523      927.00000 0.8134       1.865760       0.186576
-112.983   0.2324218750  0.87226      926.50000 0.8120       1.880509       0.188040
-113.747   0.2324218750  0.85921      927.00000 0.8151       1.849023       0.184902
-113.929   0.2370605469  0.87475      926.50000 0.8139       1.861125       0.186098
-114.711   0.2370605469  0.86358      927.00000 0.8170       1.829673       0.182967
 -54.521   0.2370605469  0.76418     1315.00000 0.8893       1.106907       0.110690
-115.723   0.2416992188  0.85645      927.00000 0.8192       1.808184       0.180818
 -54.285   0.2416992188  0.75638     1315.00000 0.8887       1.112786       0.111278
-116.784   0.2463378906  0.84875      927.00000 0.8215       1.785020       0.178502
-117.892   0.2509765625  0.85199      927.00000 0.8239       1.760622       0.176062
-119.047   0.2556152344  0.84279      927.00000 0.8265       1.735407       0.173541
-120.246   0.2602539062  0.83292      927.00000 0.8290       1.709756       0.170976
 -84.030   0.2648925781  0.75026      854.00000 0.8387       1.612649       0.161265
-101.818   0.2648925781  0.75289      915.50000 0.8789       1.211080       0.121107
-121.489   0.2648925781  0.82966      927.00000 0.8316       1.684017       0.168402
 -83.248   0.2695312500  0.76180      854.00000 0.8329       1.670660       0.167065
-122.771   0.2695312500  0.81793      927.00000 0.8341       1.658507       0.165851
 -82.637   0.2741699219  0.76748      854.00000 0.8274       1.726151       0.172613
-124.091   0.2741699219  0.80545      927.00000 0.8366       1.633502       0.163350
 -82.154   0.2788085938  0.76807      854.00000 0.8221       1.779015       0.177896
-125.443   0.2788085938  0.79222      927.00000 0.8391       1.609251       0.160925
 -81.768   0.2834472656  0.77351      854.00000 0.8171       1.829043       0.182896
-101.379   0.2834472656  0.78898      915.50000 0.8853       1.147410       0.114740
-126.823   0.2834472656  0.77965      927.00000 0.8414       1.585968       0.158597
 -81.458   0.2880859375  0.78018      854.00000 0.8124       1.875996       0.187588
-101.272   0.2880859375  0.77666      915.50000 0.8869       1.131433       0.113143
-128.224   0.2880859375  0.76422      927.00000 0.8436       1.563837       0.156384
  74.827   0.2880859375  0.77727     2049.50000 0.8173       1.827487       0.182749
 -81.208   0.2927246094  0.79102      854.00000 0.8081       1.919650       0.191950
-101.170   0.2927246094  0.76326      915.50000 0.8884       1.115579       0.111557
  74.911   0.2927246094  0.77233     2049.50000 0.8171       1.829029       0.182903
 -81.009   0.2973632812  0.81187      854.00000 0.8040       1.959811       0.195963
  74.994   0.2973632812  0.76719     2049.50000 0.8168       1.831648       0.183165
 -96.880   0.3020019531  0.77313       71.50000 0.9069       0.930937       0.093093
 -80.852   0.3020019531  0.83999      854.00000 0.8004       1.996327       0.199612
  75.074   0.3020019531  0.83441     2049.50000 0.8165       1.835322       0.183532
 -96.911   0.3066406250  0.76953       71.50000 0.9077       0.922785       0.092277
  75.151   0.3066406250  0.83041     2049.50000 0.8160       1.840025       0.184002
 -96.953   0.3112792969  0.76573       71.50000 0.9085       0.914832       0.091482
  75.224   0.3112792969  0.82521     2049.50000 0.8154       1.845727       0.184573
 -97.008   0.3159179688  0.76169       71.50000 0.9093       0.907072       0.090706
 -69.616   0.3159179688  0.88855      853.50000 0.8153       1.847322       0.184722
  75.293   0.3159179688  0.81789     2049.50000 0.8148       1.852403       0.185240
 -97.073   0.3205566406  0.75739       71.50000 0.9101       0.899501       0.089949
 -69.878   0.3205566406  0.89277      853.50000 0.8152       1.848229       0.184811
  75.357   0.3205566406  0.80706     2049.50000 0.8140       1.860019       0.186002
 -92.661   0.3251953125  0.76868       71.00000 0.9079       0.921136       0.092113
 -97.149   0.3251953125  0.80222       71.50000 0.9108       0.892114       0.089210
 -70.118   0.3251953125  0.88935      853.50000 0.8153       1.847003       0.184686
  75.300   0.3251953125  0.86751     2047.00000 0.9280       0.719762       0.071976
  75.417   0.3251953125  0.82044     2049.50000 0.8131       1.868544       0.186854
 -92.664   0.3298339844  0.76349       71.00000 0.9084       0.915857       0.091585
 -97.235   0.3298339844  0.79801       71.50000 0.9115       0.884912       0.088489
 -70.342   0.3298339844  0.88519      853.50000 0.8156       1.843746       0.184359
  75.015   0.3298339844  0.84119     2047.00000 0.9294       0.706285       0.070628
  74.345   0.3298339844  0.83318     2047.50000 0.9296       0.704135       0.070413
  75.473   0.3298339844  0.79647     2049.50000 0.8122       1.877946       0.187794
 -92.677   0.3344726562  0.75792       71.00000 0.9089       0.910750       0.091074
 -97.331   0.3344726562  0.79338       71.50000 0.9122       0.877893       0.087787
 -70.551   0.3344726562  0.87458      853.50000 0.8162       1.838596       0.183843
  74.733   0.3344726562  0.81239     2047.00000 0.9307       0.693381       0.069338
  74.061   0.3344726562  0.80246     2047.50000 0.9309       0.690806       0.069080
  75.524   0.3344726562  0.76769     2049.50000 0.8112       1.888188       0.188818
 -92.700   0.3391113281  0.75195       71.00000 0.9094       0.905817       0.090581
 -97.437   0.3391113281  0.78830       71.50000 0.9129       0.871061       0.087104
 -70.748   0.3391113281  0.85443      853.50000 0.8168       1.831702       0.183152
  74.456   0.3391113281  0.78982     2047.00000 0.9319       0.681005       0.068100
  73.776   0.3391113281  0.77809     2047.50000 0.9322       0.677831       0.067783
 -97.552   0.3437500000  0.78276       71.50000 0.9136       0.864416       0.086440
 -70.935   0.3437500000  0.82504      853.50000 0.8177       1.823228       0.182304
  74.184   0.3437500000  0.77841     2047.00000 0.9331       0.669116       0.066911
  73.488   0.3437500000  0.76498     2047.50000 0.9335       0.665170       0.066517
 -92.777   0.3483886719  0.81052       71.00000 0.9104       0.896474       0.089647
 -97.676   0.3483886719  0.79005       71.50000 0.9142       0.857964       0.085794
 -83.963   0.3483886719  0.78411     1763.00000 0.9561       0.438530       0.043852
  73.918   0.3483886719  0.79485     2047.00000 0.9342       0.657674       0.065767
  73.198   0.3483886719  0.77052     2047.50000 0.9347       0.652788       0.065278
 -92.831   0.3530273438  0.80334       71.00000 0.9108       0.892069       0.089206
 -97.809   0.3530273438  0.78229       71.50000 0.9148       0.851705       0.085168
 -82.985   0.3530273438  0.76568     1763.00000 0.9567       0.433325       0.043331
  73.657   0.3530273438  0.79442     2047.00000 0.9353       0.646642       0.064664
  72.908   0.3530273438  0.76877     2047.50000 0.9359       0.640649       0.064065
 -92.894   0.3576660156  0.79569       71.00000 0.9112       0.887845       0.088784
 -97.950   0.3576660156  0.77401       71.50000 0.9154       0.845644       0.084562
  73.403   0.3576660156  0.79734     2047.00000 0.9364       0.635987       0.063598
  72.616   0.3576660156  0.77030     2047.50000 0.9371       0.628724       0.062872
 -92.967   0.3623046875  0.78758       71.00000 0.9116       0.883802       0.088380
 -98.099   0.3623046875  0.76527       71.50000 0.9160       0.839784       0.083976
  73.156   0.3623046875  0.80096     2047.00000 0.9374       0.625676       0.062567
  72.323   0.3623046875  0.77264     2047.50000 0.9383       0.616981       0.061698
 -93.049   0.3669433594  0.77905       71.00000 0.9120       0.879946       0.087994
 -98.255   0.3669433594  0.75609       71.50000 0.9166       0.834129       0.083410
  72.916   0.3669433594  0.80364     2047.00000 0.9384       0.615682       0.061568
  72.029   0.3669433594  0.77420     2047.50000 0.9395       0.605394       0.060539
 -93.140   0.3715820312  0.77014       71.00000 0.9124       0.876276       0.087627
  72.683   0.3715820312  0.80477     2047.00000 0.9394       0.605978       0.060598
  71.735   0.3715820312  0.77435     2047.50000 0.9406       0.593938       0.059393
 -93.241   0.3762207031  0.76090       71.00000 0.9127       0.872796       0.087279
  72.017   0.3762207031  0.80755     2046.50000 0.9309       0.690887       0.069085
  72.458   0.3762207031  0.80425     2047.00000 0.9403       0.596537       0.059653
  71.440   0.3762207031  0.77296     2047.50000 0.9417       0.582589       0.058258
 -93.351   0.3808593750  0.75471       71.00000 0.9130       0.869507       0.086950
 -98.770   0.3808593750  0.76730       71.50000 0.9182       0.818423       0.081840
 -43.364   0.3808593750  0.76646     2018.00000 0.9891       0.109359       0.010936
  71.839   0.3808593750  0.80645     2046.50000 0.9314       0.686437       0.068640
  72.240   0.3808593750  0.80647     2047.00000 0.9413       0.587338       0.058734
  71.143   0.3808593750  0.79929     2047.50000 0.9429       0.571326       0.057132
  72.502   0.3808593750  0.78003     2470.00000 0.9656       0.343836       0.034384
 -98.955   0.3854980469  0.75999       71.50000 0.9186       0.813616       0.081359
 -46.086   0.3854980469  0.77285     2018.00000 0.9884       0.115725       0.011572
  71.674   0.3854980469  0.80312     2046.50000 0.9318       0.682479       0.068244
  72.030   0.3854980469  0.80331     2047.00000 0.9422       0.578358       0.057836
  70.846   0.3854980469  0.79588     2047.50000 0.9440       0.560128       0.056012
  72.252   0.3854980469  0.77249     2470.00000 0.9656       0.343774       0.034377
 -99.147   0.3901367188  0.75260       71.50000 0.9191       0.809027       0.080900
 -48.541   0.3901367188  0.77789     2018.00000 0.9878       0.122285       0.012228
  71.522   0.3901367188  0.79841     2046.50000 0.9321       0.678990       0.067895
  71.828   0.3901367188  0.79869     2047.00000 0.9430       0.569579       0.056958
  70.548   0.3901367188  0.79097     2047.50000 0.9451       0.548978       0.054897
  71.980   0.3901367188  0.76371     2470.00000 0.9656       0.343857       0.034386
 -50.760   0.3947753906  0.78177     2018.00000 0.9871       0.128999       0.012900
 100.167   0.3947753906  0.75562     2019.00000 0.9135       0.864647       0.086462
  71.383   0.3947753906  0.79242     2046.50000 0.9324       0.675950       0.067591
  71.634   0.3947753906  0.79270     2047.00000 0.9439       0.560982       0.056098
  70.248   0.3947753906  0.78463     2047.50000 0.9462       0.537858       0.053785
  71.688   0.3947753906  0.75404     2470.00000 0.9656       0.344076       0.034408
 -52.771   0.3994140625  0.78469     2018.00000 0.9864       0.135830       0.013583
 100.322   0.3994140625  0.76288     2019.00000 0.9127       0.873207       0.087317
  71.256   0.3994140625  0.78523     2046.50000 0.9327       0.673343       0.067330
  71.448   0.3994140625  0.78534     2047.00000 0.9447       0.552549       0.055255
  69.947   0.3994140625  0.77685     2047.50000 0.9473       0.526753       0.052675
 -54.600   0.4040527344  0.78679     2018.00000 0.9857       0.142749       0.014275
 100.471   0.4040527344  0.76763     2019.00000 0.9119       0.881390       0.088135
  71.140   0.4040527344  0.77685     2046.50000 0.9329       0.671148       0.067111
  71.270   0.4040527344  0.77654     2047.00000 0.9456       0.544266       0.054426
  69.644   0.4040527344  0.76756     2047.50000 0.9484       0.515648       0.051564
 -56.268   0.4086914062  0.78820     2018.00000 0.9850       0.149729       0.014973
 100.615   0.4086914062  0.77049     2019.00000 0.9111       0.889204       0.088916
  71.037   0.4086914062  0.76727     2046.50000 0.9331       0.669351       0.066931
  71.099   0.4086914062  0.76618     2047.00000 0.9464       0.536116       0.053611
  69.338   0.4086914062  0.75661     2047.50000 0.9495       0.504530       0.050452
-120.080   0.4086914062  0.75350     3554.00000 0.7777       2.223425       0.222328
 -57.796   0.4133300781  0.78903     2018.00000 0.9843       0.156747       0.015675
 100.754   0.4133300781  0.77196     2019.00000 0.9103       0.896654       0.089661
  70.945   0.4133300781  0.75646     2046.50000 0.9332       0.667936       0.066790
  70.937   0.4133300781  0.75402     2047.00000 0.9472       0.528088       0.052809
-120.045   0.4133300781  0.76336     3554.00000 0.7739       2.261147       0.226099
-100.419   0.4179687500  0.78640       71.50000 0.9214       0.786119       0.078609
 -66.205   0.4179687500  0.77915     2017.50000 0.9582       0.418090       0.041808
 -59.199   0.4179687500  0.81994     2018.00000 0.9836       0.163785       0.016379
 100.888   0.4179687500  0.78304     2019.00000 0.9096       0.903746       0.090370
  70.863   0.4179687500  0.76034     2046.50000 0.9333       0.666891       0.066685
  68.717   0.4179687500  0.77555     2047.50000 0.9518       0.482211       0.048220
-120.015   0.4179687500  0.82628     3554.00000 0.7701       2.299567       0.229939
-100.649   0.4226074219  0.78108       71.50000 0.9217       0.783071       0.078304
 -66.563   0.4226074219  0.77922     2017.50000 0.9574       0.425614       0.042560
 -60.493   0.4226074219  0.81997     2018.00000 0.9829       0.170828       0.017083
 101.016   0.4226074219  0.78445     2019.00000 0.9090       0.910486       0.091044
  70.792   0.4226074219  0.75385     2046.50000 0.9334       0.666203       0.066617
  68.401   0.4226074219  0.75814     2047.50000 0.9529       0.470987       0.047098
-119.992   0.4226074219  0.83541     3554.00000 0.7662       2.338682       0.233849
-100.883   0.4272460938  0.77568       71.50000 0.9220       0.780240       0.078021
 -66.915   0.4272460938  0.77895     2017.50000 0.9567       0.433004       0.043299
 -61.691   0.4272460938  0.81963     2018.00000 0.9822       0.177860       0.017786
 101.139   0.4272460938  0.78513     2019.00000 0.9083       0.916880       0.091683
-119.975   0.4272460938  0.84306     3554.00000 0.7622       2.378487       0.237829
-101.122   0.4318847656  0.77022       71.50000 0.9222       0.777625       0.077759
 -67.262   0.4318847656  0.77837     2017.50000 0.9560       0.440265       0.044026
 -62.804   0.4318847656  0.81899     2018.00000 0.9815       0.184873       0.018487
 101.258   0.4318847656  0.78523     2019.00000 0.9077       0.922936       0.092288
-119.962   0.4318847656  0.84946     3554.00000 0.7581       2.418980       0.241876
-101.364   0.4365234375  0.76470       71.50000 0.9225       0.775222       0.077519
 -67.604   0.4365234375  0.77753     2017.50000 0.9553       0.447404       0.044739
 -63.842   0.4365234375  0.81808     2018.00000 0.9808       0.191858       0.019186
 101.371   0.4365234375  0.78486     2019.00000 0.9071       0.928661       0.092860
-119.955   0.4365234375  0.85481     3554.00000 0.7540       2.460156       0.245992
-101.610   0.4411621094  0.75912       71.50000 0.9227       0.773031       0.077300
 -67.941   0.4411621094  0.77647     2017.50000 0.9546       0.454425       0.045442
 -64.812   0.4411621094  0.81695     2018.00000 0.9801       0.198807       0.019881
 101.480   0.4411621094  0.78411     2019.00000 0.9066       0.934061       0.093400
-119.951   0.4411621094  0.85925     3554.00000 0.7498       2.502010       0.250176
-101.859   0.4458007812  0.75350       71.50000 0.9229       0.771047       0.077101
 -68.274   0.4458007812  0.77521     2017.50000 0.9539       0.461336       0.046133
 -65.723   0.4458007812  0.81562     2018.00000 0.9794       0.205714       0.020571
 101.584   0.4458007812  0.78304     2019.00000 0.9061       0.939144       0.093908
-119.952   0.4458007812  0.86292     3554.00000 0.7456       2.544538       0.254428
 -68.603   0.4504394531  0.77377     2017.50000 0.9532       0.468142       0.046813
 -66.580   0.4504394531  0.81413     2018.00000 0.9787       0.212576       0.021258
 101.683   0.4504394531  0.78172     2019.00000 0.9056       0.943918       0.094385
 -68.928   0.4550781250  0.77218     2017.50000 0.9525       0.474849       0.047484
 -67.389   0.4550781250  0.81249     2018.00000 0.9781       0.219389       0.021939
 101.778   0.4550781250  0.78019     2019.00000 0.9052       0.948390       0.094832
 -69.249   0.4597167969  0.77045     2017.50000 0.9519       0.481464       0.048146
 -68.155   0.4597167969  0.81073     2018.00000 0.9774       0.226151       0.022615
 101.869   0.4597167969  0.77847     2019.00000 0.9048       0.952567       0.095249
-102.886   0.4643554688  0.78746       71.50000 0.9235       0.765129       0.076509
 -69.567   0.4643554688  0.79774     2017.50000 0.9512       0.487994       0.048799
 -68.882   0.4643554688  0.81834     2018.00000 0.9767       0.232862       0.023286
 101.956   0.4643554688  0.80915     2019.00000 0.9044       0.956458       0.095638
-103.148   0.4689941406  0.78265       71.50000 0.9236       0.764137       0.076410
 -69.882   0.4689941406  0.79567     2017.50000 0.9506       0.494444       0.049444
 -69.574   0.4689941406  0.81611     2018.00000 0.9760       0.239521       0.023952
 102.039   0.4689941406  0.80701     2019.00000 0.9040       0.960069       0.095998
-103.413   0.4736328125  0.77774       71.50000 0.9237       0.763331       0.076329
 -70.194   0.4736328125  0.79348     2017.50000 0.9499       0.500821       0.050081
 -70.234   0.4736328125  0.81378     2018.00000 0.9754       0.246127       0.024612
 102.119   0.4736328125  0.80482     2019.00000 0.9037       0.963410       0.096332
 -53.629   0.4736328125  0.76897     2713.00000 0.9570       0.429602       0.042957
-103.679   0.4782714844  0.77275       71.50000 0.9237       0.762709       0.076267
 -70.503   0.4782714844  0.79116     2017.50000 0.9493       0.507129       0.050712
 -70.866   0.4782714844  0.81136     2018.00000 0.9747       0.252682       0.025268
 102.194   0.4782714844  0.80259     2019.00000 0.9034       0.966488       0.096639
 -53.873   0.4782714844  0.79447     2713.00000 0.9550       0.450374       0.045034
-103.946   0.4829101562  0.76768       71.50000 0.9238       0.762265       0.076223
 -70.809   0.4829101562  0.78872     2017.50000 0.9487       0.513376       0.051337
 -71.471   0.4829101562  0.80886     2018.00000 0.9741       0.259187       0.025918
 102.266   0.4829101562  0.80032     2019.00000 0.9031       0.969308       0.096921
 -54.105   0.4829101562  0.81066     2713.00000 0.9528       0.471598       0.047157
