-135.720   0.4086914062  0.75170     2951.00000 0.9264       0.735944       0.073588
-129.033   0.4086914062  0.76357     3031.50000 0.7995       2.005112       0.200506
-160.251   0.4086914062  0.83670     3195.00000 0.8007       1.992954       0.199289
-120.173   0.4086914062  0.75736     3216.50000 0.9618       0.382247       0.038219
-121.619   0.4086914062  0.76766     3217.00000 0.9753       0.247184       0.024717
-133.447   0.4086914062  0.77055     3217.50000 0.9815       0.184960       0.018495
-126.804   0.4086914062  0.83320     3220.50000 0.9381       0.618907       0.061891
-157.527   0.4086914062  0.83893     3222.50000 0.9778       0.221514       0.022150
-131.130   0.4086914062  0.80099     3290.50000 0.7827       2.173361       0.217334
-174.812   0.4086914062  0.81830     3790.00000 0.8527       1.473136       0.147313
-173.739   0.4086914062  0.77075     4020.50000 0.8644       1.356450       0.135631
 135.779   0.4133300781  0.95049      133.50000 0.9743       0.257284       0.025725
 147.000   0.4133300781  0.80659      512.50000 0.9080       0.919761       0.091975
-172.720   0.4133300781  0.80508      682.50000 0.9012       0.988117       0.098802
-169.714   0.4133300781  0.84143      683.00000 0.8968       1.032204       0.103212
 -74.377   0.4133300781  0.85675      768.00000 0.8667       1.332544       0.133253
 -75.027   0.4133300781  0.91520      768.50000 0.8417       1.583423       0.158340
 -71.353   0.4133300781  0.95624      770.00000 0.9020       0.979699       0.097968
 -70.756   0.4133300781  0.95454      770.50000 0.9125       0.875292       0.087529
 -67.424   0.4133300781  0.91216      773.50000 0.9273       0.727385       0.072738
 -67.554   0.4133300781  0.85705      774.00000 0.9469       0.530527       0.053052
-142.627   0.4133300781  0.90680      962.00000 0.8961       1.039156       0.103909
-174.117   0.4133300781  0.88069     1224.00000 0.9091       0.909156       0.090908
 164.168   0.4133300781  0.88318     1227.00000 0.9563       0.436911       0.043687
 110.987   0.4133300781  0.75072     1506.00000 0.7317       2.682576       0.268254
 146.982   0.4133300781  0.84420     2182.00000 0.9268       0.732440       0.073239
 175.911   0.4133300781  0.90257     2619.50000 0.8686       1.314064       0.131406
-172.754   0.4133300781  0.76974     2740.00000 0.8906       1.094511       0.109446
 168.265   0.4133300781  0.81315     2828.50000 0.8654       1.345785       0.134578
 173.080   0.4133300781  0.81835     2935.50000 0.6924       3.076399       0.307627
-135.918   0.4133300781  0.75146     2951.00000 0.9271       0.729419       0.072936
-129.309   0.4133300781  0.75912     3031.50000 0.7964       2.036153       0.203610
-160.241   0.4133300781  0.84139     3195.00000 0.7997       2.002598       0.200254
-120.450   0.4133300781  0.76302     3216.50000 0.9619       0.380817       0.038076
-121.836   0.4133300781  0.77319     3217.00000 0.9752       0.248046       0.024803
-133.331   0.4133300781  0.77703     3217.50000 0.9813       0.187165       0.018715
-126.853   0.4133300781  0.84030     3220.50000 0.9388       0.611767       0.061177
-156.629   0.4133300781  0.84489     3222.50000 0.9774       0.225571       0.022556
-131.143   0.4133300781  0.80369     3290.50000 0.7794       2.206181       0.220616
-174.933   0.4133300781  0.83148     3790.00000 0.8508       1.491664       0.149166
 135.748   0.4179687500  0.94491      133.50000 0.9748       0.251565       0.025154
 133.007   0.4179687500  0.76000      191.50000 0.6509       3.490943       0.349094
 138.550   0.4179687500  0.94317      205.50000 0.6185       3.815058       0.381488
 142.566   0.4179687500  0.79637      512.00000 0.8897       1.103203       0.110320
 146.883   0.4179687500  0.85657      512.50000 0.9078       0.921629       0.092162
-172.680   0.4179687500  0.86821      682.50000 0.9011       0.988874       0.098877
-169.701   0.4179687500  0.91054      683.00000 0.8964       1.035756       0.103566
 -76.297   0.4179687500  0.77434      767.00000 0.9310       0.689881       0.068983
 -74.401   0.4179687500  0.91397      768.00000 0.8665       1.335094       0.133508
 -75.060   0.4179687500  0.95503      768.50000 0.8413       1.587245       0.158722
 -71.384   0.4179687500  0.95360      770.00000 0.9013       0.986819       0.098680
 -67.462   0.4179687500  0.90355      773.50000 0.9273       0.726761       0.072676
 -67.593   0.4179687500  0.90330      774.00000 0.9470       0.530030       0.053002
-142.839   0.4179687500  0.93441      962.00000 0.8959       1.040791       0.104072
-174.023   0.4179687500  0.87405     1224.00000 0.9096       0.904293       0.090422
 164.282   0.4179687500  0.89521     1227.00000 0.9566       0.434419       0.043438
 110.828   0.4179687500  0.81638     1506.00000 0.7287       2.712941       0.271291
 103.925   0.4179687500  0.80455     2072.00000 0.8784      82.224289       8.221925
 146.971   0.4179687500  0.87763     2182.00000 0.9268       0.732057       0.073200
 154.560   0.4179687500  0.77811     2308.00000 0.9161       0.838907       0.083891
 150.507   0.4179687500  0.75897     2308.50000 0.8876       1.124304       0.112428
 175.892   0.4179687500  0.91449     2619.50000 0.8651       1.349486       0.134948
-164.971   0.4179687500  0.79006     2724.00000 0.8537       1.462808       0.146281
-172.927   0.4179687500  0.84559     2740.00000 0.8907       1.092777       0.109272
 168.279   0.4179687500  0.80856     2828.50000 0.8623       1.376697       0.137669
-136.111   0.4179687500  0.78991     2951.00000 0.9277       0.722976       0.072292
-125.885   0.4179687500  0.86567     3076.00000 0.8505       1.495342       0.149512
-160.228   0.4179687500  0.84632     3195.00000 0.7988       2.012161       0.201211
-120.724   0.4179687500  0.76562     3216.50000 0.9621       0.379394       0.037934
-122.050   0.4179687500  0.78905     3217.00000 0.9751       0.248853       0.024884
-133.219   0.4179687500  0.80685     3217.50000 0.9811       0.189262       0.018925
-126.902   0.4179687500  0.83745     3220.50000 0.9395       0.604690       0.060469
-155.777   0.4179687500  0.84392     3222.50000 0.9770       0.229592       0.022958
-131.159   0.4179687500  0.81499     3290.50000 0.7761       2.238799       0.223877
 163.976   0.4179687500  0.75535     3707.00000 0.6734       3.266445       0.326642
-175.046   0.4179687500  0.84003     3790.00000 0.8490       1.510013       0.151001
 153.080   0.4179687500  0.75074     3886.00000 0.8881       1.119217       0.111915
 135.745   0.4226074219  0.94125      133.50000 0.9751       0.249434       0.024941
 133.027   0.4226074219  0.76074      191.50000 0.6453       3.547227       0.354723
 138.575   0.4226074219  0.94514      205.50000 0.6120       3.879838       0.387965
 142.487   0.4226074219  0.79937      512.00000 0.8894       1.105813       0.110581
 146.770   0.4226074219  0.85915      512.50000 0.9077       0.923407       0.092339
-172.639   0.4226074219  0.86808      682.50000 0.9011       0.989558       0.098945
-169.687   0.4226074219  0.91116      683.00000 0.8961       1.039219       0.103913
 -76.183   0.4226074219  0.76852      767.00000 0.9310       0.690473       0.069043
 -73.601   0.4226074219  0.83988      767.50000 0.9058       0.942495       0.094247
 -74.424   0.4226074219  0.91091      768.00000 0.8663       1.337503       0.133749
 -75.089   0.4226074219  0.95410      768.50000 0.8409       1.590808       0.159078
 -71.415   0.4226074219  0.95336      770.00000 0.9006       0.994074       0.099406
 -67.502   0.4226074219  0.90305      773.50000 0.9274       0.726032       0.072603
 -67.634   0.4226074219  0.90276      774.00000 0.9470       0.529518       0.052951
-143.050   0.4226074219  0.93552      962.00000 0.8958       1.042563       0.104249
-173.933   0.4226074219  0.87424     1224.00000 0.9101       0.899472       0.089940
 164.395   0.4226074219  0.89493     1227.00000 0.9568       0.431953       0.043191
 110.673   0.4226074219  0.81489     1506.00000 0.7256       2.743824       0.274379
 -78.496   0.4226074219  0.77108     2050.00000 0.7423       2.577001       0.257670
 103.895   0.4226074219  0.80459     2072.00000 0.8729      78.693947       7.868873
 146.962   0.4226074219  0.87860     2182.00000 0.9268       0.731823       0.073177
 154.562   0.4226074219  0.77756     2308.00000 0.9162       0.837569       0.083757
 150.464   0.4226074219  0.75492     2308.50000 0.8879       1.120896       0.112088
 175.874   0.4226074219  0.91719     2619.50000 0.8616       1.384460       0.138445
-165.095   0.4226074219  0.79097     2724.00000 0.8524       1.476099       0.147610
-173.101   0.4226074219  0.84524     2740.00000 0.8909       1.090843       0.109079
-179.134   0.4226074219  0.88075     2742.00000 0.9445       0.555324       0.055526
 168.302   0.4226074219  0.81477     2828.50000 0.8592       1.407560       0.140755
-136.300   0.4226074219  0.78958     2951.00000 0.9283       0.716616       0.071656
-125.995   0.4226074219  0.86940     3076.00000 0.8481       1.519039       0.151882
-160.213   0.4226074219  0.85112     3195.00000 0.7978       2.021636       0.202159
-120.995   0.4226074219  0.77087     3216.50000 0.9622       0.377977       0.037793
-122.261   0.4226074219  0.79376     3217.00000 0.9750       0.249603       0.024959
-133.111   0.4226074219  0.81143     3217.50000 0.9809       0.191253       0.019124
-126.950   0.4226074219  0.84436     3220.50000 0.9402       0.597683       0.059768
-154.969   0.4226074219  0.84955     3222.50000 0.9766       0.233573       0.023356
-131.175   0.4226074219  0.81697     3290.50000 0.7729       2.271185       0.227116
 163.922   0.4226074219  0.77238     3707.00000 0.6710       3.290469       0.329045
-175.151   0.4226074219  0.85064     3790.00000 0.8472       1.528179       0.152817
 152.876   0.4226074219  0.75100     3886.00000 0.8872       1.128139       0.112807
 135.577   0.4272460938  0.93908      133.50000 0.9757       0.243114       0.024309
 133.048   0.4272460938  0.76276      191.50000 0.6398       3.601789       0.360179
 138.589   0.4272460938  0.94726      205.50000 0.6057       3.943097       0.394290
 142.412   0.4272460938  0.80230      512.00000 0.8892       1.108398       0.110839
 146.661   0.4272460938  0.86165      512.50000 0.9075       0.925110       0.092510
-172.599   0.4272460938  0.86797      682.50000 0.9010       0.990167       0.099006
-169.674   0.4272460938  0.91178      683.00000 0.8957       1.042615       0.104252
 -76.072   0.4272460938  0.76287      767.00000 0.9309       0.691147       0.069110
 -73.564   0.4272460938  0.83512      767.50000 0.9056       0.944127       0.094411
 -74.447   0.4272460938  0.90790      768.00000 0.8660       1.339779       0.133977
 -75.116   0.4272460938  0.95317      768.50000 0.8406       1.594128       0.159411
 -71.447   0.4272460938  0.95316      770.00000 0.8999       1.001456       0.100144
 -67.542   0.4272460938  0.90264      773.50000 0.9275       0.725198       0.072520
 -67.675   0.4272460938  0.90230      774.00000 0.9471       0.528986       0.052898
-143.259   0.4272460938  0.93659      962.00000 0.8956       1.044473       0.104440
-173.845   0.4272460938  0.87445     1224.00000 0.9105       0.894694       0.089462
 164.507   0.4272460938  0.89464     1227.00000 0.9571       0.429511       0.042947
 110.519   0.4272460938  0.81335     1506.00000 0.7225       2.775198       0.277517
 -78.582   0.4272460938  0.78993     2050.00000 0.7397       2.603340       0.260303
 146.954   0.4272460938  0.87959     2182.00000 0.9268       0.731728       0.073167
 175.858   0.4272460938  0.91980     2619.50000 0.8581       1.418944       0.141894
-165.218   0.4272460938  0.79189     2724.00000 0.8511       1.489494       0.148949
-173.275   0.4272460938  0.84491     2740.00000 0.8911       1.088720       0.108866
-179.188   0.4272460938  0.88037     2742.00000 0.9447       0.553241       0.055318
 168.335   0.4272460938  0.82096     2828.50000 0.8562       1.438288       0.143828
-136.485   0.4272460938  0.78926     2951.00000 0.9290       0.710341       0.071028
-126.104   0.4272460938  0.87309     3076.00000 0.8457       1.542830       0.154261
-160.195   0.4272460938  0.85582     3195.00000 0.7969       2.031018       0.203098
-121.262   0.4272460938  0.77599     3216.50000 0.9623       0.376569       0.037652
-122.468   0.4272460938  0.79834     3217.00000 0.9750       0.250298       0.025028
-133.008   0.4272460938  0.81588     3217.50000 0.9807       0.193138       0.019313
-126.999   0.4272460938  0.85085     3220.50000 0.9409       0.590752       0.059075
-154.203   0.4272460938  0.85479     3222.50000 0.9763       0.237505       0.023749
-131.193   0.4272460938  0.81889     3290.50000 0.7697       2.303309       0.230328
 163.864   0.4272460938  0.78497     3707.00000 0.6685       3.314798       0.331478
-175.249   0.4272460938  0.85946     3790.00000 0.8454       1.546162       0.154615
 152.678   0.4272460938  0.75131     3886.00000 0.8863       1.137199       0.113713
 135.335   0.4318847656  0.93602      133.50000 0.9759       0.241295       0.024127
 133.060   0.4318847656  0.76324      191.50000 0.6339       3.661493       0.366149
 138.607   0.4318847656  0.94902      205.50000 0.5987       4.012892       0.401268
 142.340   0.4318847656  0.80524      512.00000 0.8889       1.110936       0.111093
 146.551   0.4318847656  0.86415      512.50000 0.9073       0.926769       0.092675
-172.560   0.4318847656  0.86788      682.50000 0.9009       0.990707       0.099060
-169.661   0.4318847656  0.91237      683.00000 0.8954       1.045926       0.104583
 -75.967   0.4318847656  0.75740      767.00000 0.9308       0.691889       0.069184
 -73.532   0.4318847656  0.83051      767.50000 0.9054       0.945774       0.094575
 -74.471   0.4318847656  0.90494      768.00000 0.8658       1.341920       0.134191
 -71.479   0.4318847656  0.95297      770.00000 0.8991       1.008959       0.100894
 -67.583   0.4318847656  0.90230      773.50000 0.9276       0.724256       0.072426
 -67.718   0.4318847656  0.90191      774.00000 0.9472       0.528426       0.052842
-143.468   0.4318847656  0.93762      962.00000 0.8954       1.046511       0.104644
-173.759   0.4318847656  0.87469     1224.00000 0.9110       0.889967       0.088990
-174.953   0.4318847656  0.87244     1224.50000 0.9125       0.875326       0.087524
 164.619   0.4318847656  0.89434     1227.00000 0.9573       0.427091       0.042705
 110.368   0.4318847656  0.81175     1506.00000 0.7193       2.807085       0.280707
 -78.669   0.4318847656  0.80300     2050.00000 0.7371       2.629465       0.262915
 146.948   0.4318847656  0.88058     2182.00000 0.9268       0.731759       0.073170
 175.844   0.4318847656  0.92234     2619.50000 0.8547       1.452900       0.145289
-165.339   0.4318847656  0.79282     2724.00000 0.8497       1.502986       0.150298
-173.449   0.4318847656  0.84458     2740.00000 0.8914       1.086418       0.108636
-179.238   0.4318847656  0.88006     2742.00000 0.9449       0.551122       0.055106
 168.376   0.4318847656  0.82713     2828.50000 0.8531       1.468788       0.146878
-136.665   0.4318847656  0.78896     2951.00000 0.9296       0.704152       0.070409
-126.211   0.4318847656  0.87673     3076.00000 0.8434       1.566706       0.156649
-160.175   0.4318847656  0.86040     3195.00000 0.7960       2.040298       0.204026
-121.525   0.4318847656  0.78096     3216.50000 0.9625       0.375171       0.037512
-122.673   0.4318847656  0.80280     3217.00000 0.9749       0.250938       0.025092
-132.910   0.4318847656  0.82020     3217.50000 0.9805       0.194921       0.019491
-127.047   0.4318847656  0.85695     3220.50000 0.9416       0.583902       0.058390
-153.477   0.4318847656  0.85967     3222.50000 0.9759       0.241382       0.024137
-131.213   0.4318847656  0.82072     3290.50000 0.7665       2.335145       0.233512
 163.801   0.4318847656  0.79509     3707.00000 0.6661       3.339398       0.333938
-175.341   0.4318847656  0.86685     3790.00000 0.8436       1.563961       0.156395
 152.486   0.4318847656  0.75169     3886.00000 0.8854       1.146392       0.114632
 135.720   0.4365234375  0.93371      133.50000 0.9762       0.237862       0.023784
 133.061   0.4365234375  0.76545      191.50000 0.6282       3.717515       0.371751
 138.622   0.4365234375  0.95021      205.50000 0.5928       4.071788       0.407157
 142.269   0.4365234375  0.80805      512.00000 0.8887       1.113443       0.111344
 146.445   0.4365234375  0.86653      512.50000 0.9072       0.928361       0.092834
-172.521   0.4365234375  0.86780      682.50000 0.9009       0.991155       0.099104
-169.649   0.4365234375  0.91294      683.00000 0.8951       1.049152       0.104905
 -75.865   0.4365234375  0.75212      767.00000 0.9307       0.692696       0.069265
 -73.503   0.4365234375  0.82606      767.50000 0.9053       0.947448       0.094743
 -74.494   0.4365234375  0.90205      768.00000 0.8656       1.343940       0.134393
 -71.512   0.4365234375  0.95282      770.00000 0.8983       1.016577       0.101656
 -67.625   0.4365234375  0.90204      773.50000 0.9277       0.723213       0.072321
 -67.762   0.4365234375  0.90158      774.00000 0.9472       0.527845       0.052784
-143.675   0.4365234375  0.93863      962.00000 0.8951       1.048672       0.104860
-173.676   0.4365234375  0.87495     1224.00000 0.9115       0.885290       0.088522
-174.913   0.4365234375  0.87259     1224.50000 0.9129       0.871197       0.087111
 164.731   0.4365234375  0.89404     1227.00000 0.9575       0.424694       0.042466
 110.219   0.4365234375  0.81009     1506.00000 0.7161       2.839482       0.283947
 -78.755   0.4365234375  0.81221     2050.00000 0.7345       2.655368       0.265505
 146.942   0.4365234375  0.88157     2182.00000 0.9268       0.731907       0.073185
 175.831   0.4365234375  0.92481     2619.50000 0.8514       1.486288       0.148628
-165.458   0.4365234375  0.79376     2724.00000 0.8483       1.516571       0.151657
-173.623   0.4365234375  0.84423     2740.00000 0.8916       1.083948       0.108388
-179.286   0.4365234375  0.87982     2742.00000 0.9451       0.548970       0.054890
 168.426   0.4365234375  0.83328     2828.50000 0.8501       1.498970       0.149896
-136.841   0.4365234375  0.78868     2951.00000 0.9302       0.698049       0.069799
-126.318   0.4365234375  0.88033     3076.00000 0.8410       1.590657       0.159044
-121.784   0.4365234375  0.78580     3216.50000 0.9626       0.373783       0.037373
-122.874   0.4365234375  0.80713     3217.00000 0.9748       0.251525       0.025151
-132.816   0.4365234375  0.82439     3217.50000 0.9803       0.196602       0.019659
-127.095   0.4365234375  0.86268     3220.50000 0.9423       0.577137       0.057713
-152.790   0.4365234375  0.86422     3222.50000 0.9755       0.245198       0.024518
 163.734   0.4365234375  0.80371     3707.00000 0.6636       3.364230       0.336421
-175.426   0.4365234375  0.87311     3790.00000 0.8418       1.581576       0.158156
 152.300   0.4365234375  0.75211     3886.00000 0.8844       1.155712       0.115565
 135.708   0.4411621094  0.93002      133.50000 0.9767       0.233279       0.023325
 138.666   0.4411621094  0.95209      205.50000 0.5868       4.131949       0.413172
 142.204   0.4411621094  0.81084      512.00000 0.8884       1.115860       0.111585
 146.344   0.4411621094  0.86886      512.50000 0.9070       0.929830       0.092981
-172.482   0.4411621094  0.86773      682.50000 0.9009       0.991533       0.099142
-169.637   0.4411621094  0.91350      683.00000 0.8948       1.052298       0.105220
 -73.478   0.4411621094  0.82175      767.50000 0.9051       0.949118       0.094910
 -74.518   0.4411621094  0.89922      768.00000 0.8654       1.345843       0.134584
 -71.545   0.4411621094  0.95270      770.00000 0.8976       1.024301       0.102428
 -67.668   0.4411621094  0.90185      773.50000 0.9278       0.722070       0.072207
 -67.806   0.4411621094  0.90130      774.00000 0.9473       0.527232       0.052723
-143.881   0.4411621094  0.93960      962.00000 0.8949       1.050955       0.105088
-173.596   0.4411621094  0.87522     1224.00000 0.9119       0.880668       0.088060
-174.875   0.4411621094  0.87275     1224.50000 0.9133       0.867014       0.086693
 164.841   0.4411621094  0.89372     1227.00000 0.9578       0.422319       0.042228
 110.072   0.4411621094  0.80836     1506.00000 0.7128       2.872405       0.287239
 146.937   0.4411621094  0.88255     2182.00000 0.9268       0.732162       0.073210
 175.818   0.4411621094  0.92721     2619.50000 0.8481       1.519076       0.151906
-165.576   0.4411621094  0.79470     2724.00000 0.8470       1.530245       0.153024
-173.796   0.4411621094  0.84385     2740.00000 0.8919       1.081319       0.108125
-179.331   0.4411621094  0.87964     2742.00000 0.9453       0.546789       0.054672
 168.484   0.4411621094  0.83940     2828.50000 0.8471       1.528739       0.152873
-137.013   0.4411621094  0.78841     2951.00000 0.9308       0.692032       0.069197
-126.423   0.4411621094  0.88387     3076.00000 0.8386       1.614673       0.161445
-122.039   0.4411621094  0.79049     3216.50000 0.9628       0.372404       0.037235
-123.072   0.4411621094  0.81134     3217.00000 0.9748       0.252059       0.025204
-132.728   0.4411621094  0.82845     3217.50000 0.9802       0.198184       0.019817
-127.143   0.4411621094  0.86808     3220.50000 0.9430       0.570463       0.057046
-152.139   0.4411621094  0.86848     3222.50000 0.9751       0.248948       0.024893
-126.685   0.4411621094  0.87999     3224.50000 0.8539       1.460754       0.146058
 163.663   0.4411621094  0.81131     3707.00000 0.6611       3.389262       0.338924
-175.505   0.4411621094  0.87847     3790.00000 0.8401       1.599007       0.159899
 152.119   0.4411621094  0.75257     3886.00000 0.8835       1.165154       0.116509
 134.907   0.4458007812  0.92753      133.50000 0.9771       0.229126       0.022910
 138.671   0.4458007812  0.95344      205.50000 0.5802       4.198644       0.419841
 142.140   0.4458007812  0.81356      512.00000 0.8882       1.118250       0.111824
 146.244   0.4458007812  0.87114      512.50000 0.9069       0.931260       0.093124
-172.444   0.4458007812  0.86769      682.50000 0.9008       0.991849       0.099173
-169.625   0.4458007812  0.91405      683.00000 0.8945       1.055374       0.105527
 -73.457   0.4458007812  0.81759      767.50000 0.9049       0.950791       0.095077
 -74.541   0.4458007812  0.89644      768.00000 0.8652       1.347624       0.134762
 -71.578   0.4458007812  0.95260      770.00000 0.8968       1.032129       0.103211
 -67.711   0.4458007812  0.90172      773.50000 0.9279       0.720833       0.072083
 -67.851   0.4458007812  0.90107      774.00000 0.9473       0.526592       0.052659
-144.085   0.4458007812  0.94054      962.00000 0.8947       1.053352       0.105328
-174.839   0.4458007812  0.87292     1224.50000 0.9137       0.862785       0.086270
 164.951   0.4458007812  0.89339     1227.00000 0.9580       0.419964       0.041993
 109.928   0.4458007812  0.80655     1506.00000 0.7094       2.905831       0.290582
 108.440   0.4458007812  0.92647     2085.00000 0.3513       6.487372       0.648685
 146.932   0.4458007812  0.88352     2182.00000 0.9268       0.732514       0.073245
 149.808   0.4458007812  0.91754     2182.50000 0.9053       0.947200       0.094716
 175.807   0.4458007812  0.92954     2619.50000 0.8449       1.551226       0.155121
-165.692   0.4458007812  0.79565     2724.00000 0.8456       1.544004       0.154400
-173.969   0.4458007812  0.84344     2740.00000 0.8922       1.078542       0.107848
-179.374   0.4458007812  0.87950     2742.00000 0.9455       0.544579       0.054451
-137.181   0.4458007812  0.78816     2951.00000 0.9314       0.686101       0.068604
-130.912   0.4458007812  0.75999     3031.50000 0.7738       2.262009       0.226195
-126.526   0.4458007812  0.88735     3076.00000 0.8361       1.638744       0.163852
-122.289   0.4458007812  0.79504     3216.50000 0.9629       0.371036       0.037099
-123.266   0.4458007812  0.81543     3217.00000 0.9747       0.252541       0.025252
-132.643   0.4458007812  0.83238     3217.50000 0.9800       0.199671       0.019966
-119.392   0.4458007812  0.87313     3220.00000 0.9436       0.563763       0.056375
-127.190   0.4458007812  0.87316     3220.50000 0.9436       0.563883       0.056388
-151.523   0.4458007812  0.87246     3222.50000 0.9747       0.252626       0.025261
-126.896   0.4458007812  0.88342     3224.50000 0.8547       1.453097       0.145294
 163.588   0.4458007812  0.81819     3707.00000 0.6586       3.414467       0.341445
-175.578   0.4458007812  0.88312     3790.00000 0.8384       1.616254       0.161624
 151.945   0.4458007812  0.75308     3886.00000 0.8825       1.174710       0.117464
 135.152   0.4504394531  0.92429      133.50000 0.9774       0.226488       0.022647
 -38.748   0.4504394531  0.75018      200.00000 0.5834       4.166469       0.416633
 138.682   0.4504394531  0.95441      205.50000 0.5741       4.259046       0.425880
 142.077   0.4504394531  0.81624      512.00000 0.8879       1.120584       0.112058
 146.146   0.4504394531  0.87337      512.50000 0.9067       0.932587       0.093257
-172.406   0.4504394531  0.86765      682.50000 0.9008       0.992083       0.099196
-169.614   0.4504394531  0.91457      683.00000 0.8942       1.058355       0.105825
 -73.439   0.4504394531  0.81357      767.50000 0.9048       0.952466       0.095245
 -74.564   0.4504394531  0.89374      768.00000 0.8651       1.349298       0.134929
 -71.611   0.4504394531  0.95253      770.00000 0.8960       1.040054       0.104004
 -67.896   0.4504394531  0.90088      774.00000 0.9474       0.525920       0.052591
-144.288   0.4504394531  0.94145      962.00000 0.8944       1.055863       0.105579
-174.803   0.4504394531  0.87311     1224.50000 0.9142       0.858516       0.085843
 165.059   0.4504394531  0.89305     1227.00000 0.9582       0.417629       0.041759
 109.785   0.4504394531  0.80465     1506.00000 0.7060       2.939782       0.293978
 108.409   0.4504394531  0.93333     2085.00000 0.3427       6.573066       0.657253
 146.927   0.4504394531  0.88447     2182.00000 0.9267       0.732953       0.073289
 149.812   0.4504394531  0.91873     2182.50000 0.9054       0.946264       0.094622
 175.796   0.4504394531  0.93180     2619.50000 0.8417       1.582711       0.158270
-165.807   0.4504394531  0.79660     2724.00000 0.8442       1.557844       0.155784
-174.141   0.4504394531  0.84299     2740.00000 0.8924       1.075626       0.107556
-179.414   0.4504394531  0.87940     2742.00000 0.9458       0.542345       0.054228
-137.345   0.4504394531  0.78793     2951.00000 0.9320       0.680257       0.068020
-131.101   0.4504394531  0.77855     3031.50000 0.7705       2.295292       0.229523
-126.628   0.4504394531  0.89076     3076.00000 0.8337       1.662863       0.166264
-122.535   0.4504394531  0.79946     3216.50000 0.9630       0.369680       0.036963
-123.458   0.4504394531  0.81939     3217.00000 0.9747       0.252973       0.025296
-132.564   0.4504394531  0.83618     3217.50000 0.9799       0.201063       0.020105
-119.450   0.4504394531  0.87800     3220.00000 0.9444       0.556010       0.055599
-127.237   0.4504394531  0.87796     3220.50000 0.9443       0.557397       0.055739
-150.940   0.4504394531  0.87619     3222.50000 0.9744       0.256230       0.025622
-127.104   0.4504394531  0.88661     3224.50000 0.8555       1.445558       0.144542
 163.511   0.4504394531  0.82452     3707.00000 0.6560       3.439813       0.343979
-175.647   0.4504394531  0.88719     3790.00000 0.8367       1.633320       0.163330
-176.748   0.4504394531  0.87342     3790.50000 0.8204       1.796682       0.179648
 151.776   0.4504394531  0.75363     3886.00000 0.8816       1.184375       0.118431
 131.056   0.4550781250  0.83301       88.00000 0.4077      16.882824       1.688281
 134.759   0.4550781250  0.91983      133.50000 0.9777       0.222860       0.022284
 -38.768   0.4550781250  0.75156      200.00000 0.5768       4.232175       0.423203
 138.728   0.4550781250  0.95615      205.50000 0.5682       4.318351       0.431809
 142.019   0.4550781250  0.81887      512.00000 0.8877       1.122902       0.112289
 146.050   0.4550781250  0.87556      512.50000 0.9066       0.933933       0.093391
-172.369   0.4550781250  0.86762      682.50000 0.9008       0.992237       0.099211
-169.603   0.4550781250  0.91508      683.00000 0.8939       1.061264       0.106115
 -73.424   0.4550781250  0.80970      767.50000 0.9046       0.954121       0.095411
 -74.586   0.4550781250  0.89111      768.00000 0.8649       1.350873       0.135087
 -71.644   0.4550781250  0.95248      770.00000 0.8952       1.048075       0.104806
-144.490   0.4550781250  0.94234      962.00000 0.8942       1.058477       0.105840
-174.769   0.4550781250  0.87330     1224.50000 0.9146       0.854215       0.085413
 165.166   0.4550781250  0.89271     1227.00000 0.9585       0.415314       0.041528
 109.646   0.4550781250  0.80267     1506.00000 0.7026       2.974257       0.297426
 108.378   0.4550781250  0.93874     2085.00000 0.3342       6.658191       0.665763
 146.922   0.4550781250  0.88541     2182.00000 0.9267       0.733474       0.073341
 149.816   0.4550781250  0.91990     2182.50000 0.9055       0.945353       0.094530
 175.786   0.4550781250  0.93400     2619.50000 0.8387       1.613500       0.161348
-165.920   0.4550781250  0.79754     2724.00000 0.8428       1.571759       0.157176
-174.313   0.4550781250  0.84248     2740.00000 0.8927       1.072581       0.107251
-179.452   0.4550781250  0.87934     2742.00000 0.9460       0.540089       0.054002
-173.656   0.4550781250  0.75895     2771.50000 0.8088       1.912197       0.191206
-137.505   0.4550781250  0.78770     2951.00000 0.9326       0.674499       0.067444
-131.282   0.4550781250  0.79815     3031.50000 0.7671       2.328782       0.232872
-126.728   0.4550781250  0.89410     3076.00000 0.8313       1.687021       0.168680
-122.777   0.4550781250  0.80374     3216.50000 0.9632       0.368334       0.036829
-123.645   0.4550781250  0.82324     3217.00000 0.9747       0.253357       0.025334
-132.488   0.4550781250  0.83987     3217.50000 0.9798       0.202363       0.020235
-119.510   0.4550781250  0.88259     3220.00000 0.9452       0.548443       0.054843
-127.284   0.4550781250  0.88248     3220.50000 0.9449       0.551010       0.055101
-150.387   0.4550781250  0.87969     3222.50000 0.9740       0.259754       0.025974
-127.308   0.4550781250  0.88959     3224.50000 0.8562       1.438137       0.143801
-175.710   0.4550781250  0.89081     3790.00000 0.8350       1.650201       0.165018
-176.759   0.4550781250  0.87588     3790.50000 0.8183       1.816939       0.181673
 151.613   0.4550781250  0.75422     3886.00000 0.8806       1.194141       0.119407
 135.006   0.4597167969  0.91799      133.50000 0.9779       0.221240       0.022122
 138.747   0.4597167969  0.95739      205.50000 0.5624       4.376708       0.437644
 141.965   0.4597167969  0.82142      512.00000 0.8875       1.125120       0.112511
-172.333   0.4597167969  0.86760      682.50000 0.9008       0.992328       0.099220
-169.592   0.4597167969  0.91558      683.00000 0.8936       1.064092       0.106398
-167.143   0.4597167969  0.93467      683.50000 0.8838       1.162092       0.116195
 -73.412   0.4597167969  0.80596      767.50000 0.9044       0.955763       0.095575
 -74.608   0.4597167969  0.88854      768.00000 0.8648       1.352346       0.135234
 -71.677   0.4597167969  0.95246      770.00000 0.8944       1.056179       0.105616
-144.690   0.4597167969  0.94319      962.00000 0.8939       1.061190       0.106111
-174.735   0.4597167969  0.87350     1224.50000 0.9150       0.849888       0.084980
 165.273   0.4597167969  0.89236     1227.00000 0.9587       0.413018       0.041298
 109.508   0.4597167969  0.80058     1506.00000 0.6991       3.009265       0.300926
 108.348   0.4597167969  0.94305     2085.00000 0.3258       6.742656       0.674208
 146.917   0.4597167969  0.88632     2182.00000 0.9266       0.734066       0.073400
 149.819   0.4597167969  0.92104     2182.50000 0.9056       0.944462       0.094441
 175.777   0.4597167969  0.93614     2619.50000 0.8356       1.643563       0.164355
-166.032   0.4597167969  0.79849     2724.00000 0.8414       1.585747       0.158575
-174.483   0.4597167969  0.84191     2740.00000 0.8931       1.069416       0.106934
-179.488   0.4597167969  0.87931     2742.00000 0.9462       0.537813       0.053774
-173.783   0.4597167969  0.77089     2771.50000 0.8060       1.940045       0.193991
-137.662   0.4597167969  0.78749     2951.00000 0.9331       0.668827       0.066876
-131.454   0.4597167969  0.81695     3031.50000 0.7638       2.362466       0.236240
-126.827   0.4597167969  0.89737     3076.00000 0.8289       1.711210       0.171099
-123.014   0.4597167969  0.80789     3216.50000 0.9633       0.366998       0.036695
-123.830   0.4597167969  0.82697     3217.00000 0.9746       0.253692       0.025368
-132.417   0.4597167969  0.84343     3217.50000 0.9796       0.203574       0.020356
-119.574   0.4597167969  0.88693     3220.00000 0.9459       0.541057       0.054104
-127.330   0.4597167969  0.88676     3220.50000 0.9455       0.544723       0.054472
-149.865   0.4597167969  0.88297     3222.50000 0.9737       0.263195       0.026318
-127.508   0.4597167969  0.89236     3224.50000 0.8569       1.430832       0.143072
 148.898   0.4597167969  0.75958     3710.50000 0.8301       1.698839       0.169882
-175.768   0.4597167969  0.89404     3790.00000 0.8333       1.666902       0.166688
-176.769   0.4597167969  0.87794     3790.50000 0.8163       1.837086       0.183687
 151.455   0.4597167969  0.75483     3886.00000 0.8796       1.204003       0.120394
 156.031   0.4597167969  0.86037     3887.00000 0.8120       1.879900       0.187978
 131.143   0.4643554688  0.81298       88.00000 0.4043      16.788536       1.678725
 135.593   0.4643554688  0.91683      133.50000 0.9782       0.218456       0.021843
 138.769   0.4643554688  0.96518      205.50000 0.5563       4.437141       0.443685
 -18.229   0.4643554688  0.76099      379.00000 0.8585       1.415289       0.141521
 139.520   0.4643554688  0.80648      511.50000 0.8646       1.354316       0.135430
 141.909   0.4643554688  0.87266      512.00000 0.8873       1.127320       0.112731
-169.581   0.4643554688  0.96002      683.00000 0.8933       1.066826       0.106671
-167.161   0.4643554688  0.96468      683.50000 0.8832       1.168559       0.116841
 -75.352   0.4643554688  0.78682      767.00000 0.9302       0.698353       0.069831
 -73.404   0.4643554688  0.87651      767.50000 0.9043       0.957387       0.095737
 -74.629   0.4643554688  0.94402      768.00000 0.8646       1.353718       0.135371
 -71.710   0.4643554688  0.96462      770.00000 0.8936       1.064363       0.106434
-144.888   0.4643554688  0.96533      962.00000 0.8936       1.064007       0.106393
-108.293   0.4643554688  0.76270     1105.50000 0.9234       0.766365       0.076635
-174.703   0.4643554688  0.86437     1224.50000 0.9155       0.845544       0.084546
 165.377   0.4643554688  0.89421     1227.00000 0.9589       0.410741       0.041071
 165.599   0.4643554688  0.82578     1458.00000 0.8395       1.605484       0.160547
 109.373   0.4643554688  0.84904     1506.00000 0.6955       3.044795       0.304479
 146.911   0.4643554688  0.91572     2182.00000 0.9265       0.734724       0.073465
 149.821   0.4643554688  0.93332     2182.50000 0.9056       0.943586       0.094353
 175.768   0.4643554688  0.95890     2619.50000 0.8327       1.672880       0.167286
-166.142   0.4643554688  0.88465     2724.00000 0.8400       1.599806       0.159980
-174.653   0.4643554688  0.88546     2740.00000 0.8934       1.066138       0.106606
-179.523   0.4643554688  0.92221     2742.00000 0.9465       0.535519       0.053545
-173.905   0.4643554688  0.78094     2771.50000 0.8032       1.967913       0.196777
-137.815   0.4643554688  0.83690     2951.00000 0.9337       0.663240       0.066318
-140.368   0.4643554688  0.76769     2951.50000 0.9338       0.661705       0.066168
-131.620   0.4643554688  0.81930     3031.50000 0.7604       2.396327       0.239626
-126.923   0.4643554688  0.97635     3076.00000 0.8265       1.735425       0.173520
-123.246   0.4643554688  0.81393     3216.50000 0.9634       0.365672       0.036563
-124.011   0.4643554688  0.84020     3217.00000 0.9746       0.253981       0.025396
-132.351   0.4643554688  0.86520     3217.50000 0.9795       0.204699       0.020469
-119.639   0.4643554688  0.88154     3220.00000 0.9466       0.533848       0.053383
-127.376   0.4643554688  0.88259     3220.50000 0.9461       0.538537       0.053853
-149.370   0.4643554688  0.88222     3222.50000 0.9733       0.266551       0.026654
-127.706   0.4643554688  0.91315     3224.50000 0.8576       1.423644       0.142354
 -99.258   0.4643554688  0.75834     3550.50000 0.9500       0.500024       0.049999
 149.085   0.4643554688  0.80399     3710.50000 0.8284       1.715886       0.171587
-175.822   0.4643554688  0.89679     3790.00000 0.8317       1.683424       0.168340
-176.776   0.4643554688  0.89380     3790.50000 0.8143       1.857126       0.185690
-149.498   0.4643554688  0.90589     3818.00000 0.9300       0.699932       0.069983
-121.454   0.4643554688  0.77129     3874.50000 0.8564       1.435596       0.143558
 151.302   0.4643554688  0.84703     3886.00000 0.8786       1.213954       0.121389
 155.886   0.4643554688  0.86764     3887.00000 0.8111       1.889181       0.188906
 134.642   0.4689941406  0.91298      133.50000 0.9785       0.214958       0.021494
 138.780   0.4689941406  0.96633      205.50000 0.5501       4.499062       0.449876
 -18.238   0.4689941406  0.76107      379.00000 0.8568       1.432526       0.143244
 139.499   0.4689941406  0.80918      511.50000 0.8642       1.358066       0.135805
 141.858   0.4689941406  0.87474      512.00000 0.8870       1.129534       0.112952
-169.572   0.4689941406  0.96033      683.00000 0.8931       1.069504       0.106939
-167.179   0.4689941406  0.96524      683.50000 0.8825       1.174958       0.117481
 -75.282   0.4689941406  0.78310      767.00000 0.9301       0.699366       0.069933
 -73.397   0.4689941406  0.87386      767.50000 0.9041       0.958983       0.095897
 -74.650   0.4689941406  0.94302      768.00000 0.8645       1.354995       0.135499
 -71.743   0.4689941406  0.96482      770.00000 0.8927       1.072626       0.107261
-145.084   0.4689941406  0.96602      962.00000 0.8933       1.066909       0.106683
-108.150   0.4689941406  0.76245     1105.50000 0.9228       0.771595       0.077158
-174.671   0.4689941406  0.86470     1224.50000 0.9159       0.841183       0.084110
 165.481   0.4689941406  0.89385     1227.00000 0.9592       0.408482       0.040845
 165.575   0.4689941406  0.82287     1458.00000 0.8395       1.605469       0.160546
 109.240   0.4689941406  0.84589     1506.00000 0.6919       3.080853       0.308085
 146.905   0.4689941406  0.91693     2182.00000 0.9265       0.735439       0.073537
 149.823   0.4689941406  0.93435     2182.50000 0.9057       0.942719       0.094266
 168.963   0.4689941406  0.75619     2607.00000 0.8040       1.960024       0.196002
 175.759   0.4689941406  0.96001     2619.50000 0.8299       1.701424       0.170140
-166.250   0.4689941406  0.88582     2724.00000 0.8386       1.613930       0.161393
-174.821   0.4689941406  0.88592     2740.00000 0.8937       1.062758       0.106268
-179.555   0.4689941406  0.92163     2742.00000 0.9467       0.533209       0.053314
-174.023   0.4689941406  0.79208     2771.50000 0.8004       1.995800       0.199566
-137.965   0.4689941406  0.83643     2951.00000 0.9342       0.657737       0.065768
-140.514   0.4689941406  0.76746     2951.50000 0.9343       0.657150       0.065713
-131.778   0.4689941406  0.83585     3031.50000 0.7570       2.430354       0.243029
-127.018   0.4689941406  0.97688     3076.00000 0.8241       1.759657       0.175943
-123.474   0.4689941406  0.81775     3216.50000 0.9636       0.364357       0.036431
-124.188   0.4689941406  0.84348     3217.00000 0.9746       0.254226       0.025421
-132.288   0.4689941406  0.86791     3217.50000 0.9794       0.205741       0.020573
-119.706   0.4689941406  0.88565     3220.00000 0.9473       0.526813       0.052680
-127.422   0.4689941406  0.88670     3220.50000 0.9468       0.532453       0.053245
-148.901   0.4689941406  0.88521     3222.50000 0.9730       0.269819       0.026980
-127.900   0.4689941406  0.91569     3224.50000 0.8584       1.416569       0.141647
 -99.322   0.4689941406  0.76022     3550.50000 0.9505       0.495091       0.049506
 149.265   0.4689941406  0.81005     3710.50000 0.8267       1.732649       0.173262
-175.872   0.4689941406  0.89995     3790.00000 0.8300       1.699767       0.169974
-176.781   0.4689941406  0.89624     3790.50000 0.8123       1.877064       0.187684
-149.797   0.4689941406  0.90821     3818.00000 0.9287       0.712905       0.071280
-121.226   0.4689941406  0.77497     3874.50000 0.8555       1.445442       0.144543
 151.154   0.4689941406  0.84800     3886.00000 0.8776       1.223988       0.122392
 155.741   0.4689941406  0.86743     3887.00000 0.8102       1.898197       0.189808
 134.455   0.4736328125  0.90702      133.50000 0.9789       0.211340       0.021132
 138.820   0.4736328125  0.96649      205.50000 0.5446       4.553830       0.455351
 -18.244   0.4736328125  0.76127      379.00000 0.8550       1.449847       0.144976
 139.480   0.4736328125  0.81177      511.50000 0.8638       1.361677       0.136166
 141.808   0.4736328125  0.87672      512.00000 0.8868       1.131615       0.113160
-169.561   0.4736328125  0.96064      683.00000 0.8928       1.072082       0.107196
-167.196   0.4736328125  0.96578      683.50000 0.8819       1.181289       0.118114
 -75.216   0.4736328125  0.77952      767.00000 0.9300       0.700380       0.070034
 -73.393   0.4736328125  0.87130      767.50000 0.9039       0.960557       0.096054
 -74.670   0.4736328125  0.94203      768.00000 0.8644       1.356193       0.135619
 -71.775   0.4736328125  0.96503      770.00000 0.8919       1.080973       0.108096
-145.949   0.4736328125  0.96841      961.50000 0.8867       1.133463       0.113346
-145.279   0.4736328125  0.96668      962.00000 0.8930       1.069907       0.106983
-108.008   0.4736328125  0.76220     1105.50000 0.9223       0.776756       0.077674
-174.640   0.4736328125  0.86504     1224.50000 0.9163       0.836813       0.083673
 165.583   0.4736328125  0.89349     1227.00000 0.9594       0.406240       0.040621
 168.008   0.4736328125  0.84669     1457.50000 0.7885       2.115357       0.211536
 165.553   0.4736328125  0.81943     1458.00000 0.8395       1.605159       0.160515
 109.109   0.4736328125  0.84257     1506.00000 0.6883       3.117449       0.311745
-156.399   0.4736328125  0.84753     1915.00000 0.6623       3.377154       0.337715
 149.824   0.4736328125  0.93535     2182.50000 0.9058       0.941858       0.094180
 168.836   0.4736328125  0.76644     2607.00000 0.8014       1.985897       0.198590
 175.751   0.4736328125  0.96109     2619.50000 0.8271       1.729174       0.172915
-166.357   0.4736328125  0.88696     2724.00000 0.8372       1.628117       0.162812
-174.988   0.4736328125  0.88637     2740.00000 0.8941       1.059283       0.105921
-179.586   0.4736328125  0.92106     2742.00000 0.9469       0.530886       0.053082
-174.136   0.4736328125  0.80287     2771.50000 0.7976       2.023701       0.202355
-138.111   0.4736328125  0.83597     2951.00000 0.9348       0.652319       0.065226
-140.656   0.4736328125  0.76723     2951.50000 0.9347       0.652631       0.065261
-131.930   0.4736328125  0.85015     3031.50000 0.7536       2.464533       0.246446
-127.112   0.4736328125  0.97739     3076.00000 0.8216       1.783902       0.178367
-123.697   0.4736328125  0.82145     3216.50000 0.9637       0.363051       0.036301
-124.362   0.4736328125  0.84664     3217.00000 0.9746       0.254427       0.025441
-132.229   0.4736328125  0.87053     3217.50000 0.9793       0.206702       0.020669
-119.775   0.4736328125  0.88954     3220.00000 0.9480       0.519947       0.051993
-127.467   0.4736328125  0.89059     3220.50000 0.9474       0.526471       0.052647
-148.458   0.4736328125  0.88803     3222.50000 0.9727       0.272996       0.027298
-128.091   0.4736328125  0.91807     3224.50000 0.8590       1.409605       0.140952
 -99.384   0.4736328125  0.76207     3550.50000 0.9510       0.490237       0.049021
 149.438   0.4736328125  0.81581     3710.50000 0.8251       1.749129       0.174910
-175.919   0.4736328125  0.90287     3790.00000 0.8284       1.715933       0.171591
-176.785   0.4736328125  0.89847     3790.50000 0.8103       1.896904       0.189667
-150.083   0.4736328125  0.91042     3818.00000 0.9274       0.725861       0.072576
-121.004   0.4736328125  0.77860     3874.50000 0.8545       1.455361       0.145535
 151.011   0.4736328125  0.84898     3886.00000 0.8766       1.234100       0.123403
 155.596   0.4736328125  0.86724     3887.00000 0.8093       1.906968       0.190685
 134.918   0.4782714844  0.90504      133.50000 0.9791       0.208778       0.020876
 -18.250   0.4782714844  0.76159      379.00000 0.8533       1.467113       0.146703
 139.462   0.4782714844  0.81436      511.50000 0.8635       1.365280       0.136526
 141.761   0.4782714844  0.87870      512.00000 0.8866       1.133712       0.113370
-169.551   0.4782714844  0.96092      683.00000 0.8926       1.074587       0.107447
-167.214   0.4782714844  0.96629      683.50000 0.8813       1.187540       0.118738
 -75.154   0.4782714844  0.77608      767.00000 0.9299       0.701397       0.070136
 -73.392   0.4782714844  0.86881      767.50000 0.9038       0.962099       0.096209
 -74.690   0.4782714844  0.94105      768.00000 0.8643       1.357308       0.135730
 -71.808   0.4782714844  0.96525      770.00000 0.8911       1.089385       0.108937
-146.168   0.4782714844  0.96864      961.50000 0.8861       1.139097       0.113910
-145.472   0.4782714844  0.96732      962.00000 0.8927       1.072985       0.107290
-107.867   0.4782714844  0.76194     1105.50000 0.9218       0.781853       0.078184
-174.610   0.4782714844  0.86539     1224.50000 0.9168       0.832441       0.083236
 165.684   0.4782714844  0.89313     1227.00000 0.9596       0.404016       0.040398
 167.947   0.4782714844  0.84214     1457.50000 0.7876       2.123568       0.212357
 165.531   0.4782714844  0.81548     1458.00000 0.8395       1.604564       0.160455
 108.980   0.4782714844  0.83909     1506.00000 0.6845       3.154581       0.315458
-156.260   0.4782714844  0.85289     1915.00000 0.6606       3.393681       0.339368
 149.825   0.4782714844  0.93631     2182.50000 0.9059       0.940998       0.094094
 168.714   0.4782714844  0.77577     2607.00000 0.7988       2.011804       0.201180
-166.462   0.4782714844  0.88807     2724.00000 0.8358       1.642363       0.164236
-175.154   0.4782714844  0.88679     2740.00000 0.8944       1.055720       0.105564
-179.616   0.4782714844  0.92052     2742.00000 0.9472       0.528551       0.052848
-174.246   0.4782714844  0.81323     2771.50000 0.7949       2.051615       0.205146
-138.254   0.4782714844  0.83552     2951.00000 0.9353       0.646983       0.064692
-140.795   0.4782714844  0.76702     2951.50000 0.9352       0.648149       0.064812
-132.076   0.4782714844  0.86246     3031.50000 0.7501       2.498851       0.249878
