 -10.715   0.0747070312  0.94569     2390.50000 0.8792       1.208003       0.120800
 -10.078   0.0747070312  0.94612     2391.00000 0.8774       1.226234       0.122623
  -9.639   0.0747070312  0.94646     2391.50000 0.8759       1.240864       0.124085
  -9.401   0.0747070312  0.94668     2392.00000 0.8749       1.251373       0.125133
  -9.358   0.0747070312  0.94677     2392.50000 0.8743       1.257437       0.125736
 -22.198   0.0747070312  0.94866     2401.50000 0.8979       1.021552       0.102141
 -22.032   0.0747070312  0.94906     2402.00000 0.8983       1.016978       0.101687
 -21.662   0.0747070312  0.94932     2402.50000 0.8985       1.014715       0.101464
 -21.101   0.0747070312  0.94943     2403.00000 0.8985       1.014846       0.101479
 -20.365   0.0747070312  0.94940     2403.50000 0.8983       1.017456       0.101742
 -19.477   0.0747070312  0.94926     2404.00000 0.8977       1.022622       0.102260
 -18.461   0.0747070312  0.94904     2404.50000 0.8970       1.030399       0.103039
 -17.347   0.0747070312  0.94878     2405.00000 0.8959       1.040814       0.104081
 -16.166   0.0747070312  0.94854     2405.50000 0.8946       1.053850       0.105385
 -14.949   0.0747070312  0.94838     2406.00000 0.8931       1.069432       0.106943
 -13.728   0.0747070312  0.94837     2406.50000 0.8913       1.087425       0.108742
 -12.530   0.0747070312  0.94856     2407.00000 0.8892       1.107619       0.110762
 -11.383   0.0747070312  0.94899     2407.50000 0.8870       1.129728       0.112973
 -10.309   0.0747070312  0.94972     2408.00000 0.8847       1.153391       0.115339
  -9.328   0.0747070312  0.95075     2408.50000 0.8822       1.178171       0.117817
  -8.457   0.0747070312  0.95210     2409.00000 0.8796       1.203566       0.120356
  -7.706   0.0747070312  0.95374     2409.50000 0.8771       1.229018       0.122901
  -7.086   0.0747070312  0.95562     2410.00000 0.8746       1.253929       0.125392
  -6.602   0.0747070312  0.95771     2410.50000 0.8722       1.277683       0.127767
  -6.256   0.0747070312  0.95991     2411.00000 0.8700       1.299670       0.129965
  -6.047   0.0747070312  0.96214     2411.50000 0.8681       1.319317       0.131928
  -5.975   0.0747070312  0.96432     2412.00000 0.8664       1.336110       0.133606
  -6.033   0.0747070312  0.96636     2412.50000 0.8650       1.349635       0.134957
  -6.216   0.0747070312  0.96819     2413.00000 0.8640       1.359590       0.135951
  -6.514   0.0747070312  0.96976     2413.50000 0.8634       1.365816       0.136572
  -6.918   0.0747070312  0.97103     2414.00000 0.8632       1.368294       0.136817
  -7.416   0.0747070312  0.97200     2414.50000 0.8633       1.367151       0.136701
  -7.995   0.0747070312  0.97268     2415.00000 0.8638       1.362643       0.136249
 -13.179   0.0747070312  0.97379     2418.50000 0.8725       1.274803       0.127467
 -13.921   0.0747070312  0.97394     2419.00000 0.8740       1.260269       0.126015
 -14.628   0.0747070312  0.97414     2419.50000 0.8754       1.246592       0.124649
 -15.291   0.0747070312  0.97438     2420.00000 0.8766       1.234110       0.123403
 -15.902   0.0747070312  0.97463     2420.50000 0.8777       1.223111       0.122304
 -16.452   0.0747070312  0.97489     2421.00000 0.8786       1.213835       0.121378
 -16.936   0.0747070312  0.97513     2421.50000 0.8794       1.206470       0.120643
 -17.346   0.0747070312  0.97534     2422.00000 0.8799       1.201163       0.120113
 -17.678   0.0747070312  0.97550     2422.50000 0.8802       1.198015       0.119800
 -17.927   0.0747070312  0.97561     2423.00000 0.8803       1.197090       0.119708
 -18.091   0.0747070312  0.97568     2423.50000 0.8802       1.198413       0.119841
 -18.166   0.0747070312  0.97572     2424.00000 0.8798       1.201974       0.120197
 -18.153   0.0747070312  0.97575     2424.50000 0.8792       1.207732       0.120773
 -18.052   0.0747070312  0.97580     2425.00000 0.8784       1.215615       0.121561
 -17.865   0.0747070312  0.97590     2425.50000 0.8774       1.225523       0.122552
 -17.597   0.0747070312  0.97607     2426.00000 0.8763       1.237320       0.123732
 -17.253   0.0747070312  0.97634     2426.50000 0.8749       1.250841       0.125084
 -16.841   0.0747070312  0.97671     2427.00000 0.8734       1.265883       0.126588
 -16.369   0.0747070312  0.97720     2427.50000 0.8718       1.282199       0.128220
 -15.848   0.0747070312  0.97779     2428.00000 0.8701       1.299496       0.129950
 -15.289   0.0747070312  0.97845     2428.50000 0.8683       1.317426       0.131743
 -14.704   0.0747070312  0.97916     2429.00000 0.8664       1.335583       0.133558
 -14.104   0.0747070312  0.97987     2429.50000 0.8647       1.353500       0.135350
 -13.501   0.0747070312  0.98052     2430.00000 0.8629       1.370659       0.137066
 -12.907   0.0747070312  0.98107     2430.50000 0.8614       1.386500       0.138650
 -12.332   0.0747070312  0.98148     2431.00000 0.8600       1.400439       0.140044
 -11.786   0.0747070312  0.98170     2431.50000 0.8588       1.411899       0.141190
 -11.276   0.0747070312  0.98172     2432.00000 0.8580       1.420342       0.142034
 -10.808   0.0747070312  0.98153     2432.50000 0.8575       1.425305       0.142530
 -10.389   0.0747070312  0.98113     2433.00000 0.8574       1.426438       0.142643
 -10.023   0.0747070312  0.98055     2433.50000 0.8576       1.423528       0.142352
  -9.711   0.0747070312  0.97982     2434.00000 0.8583       1.416521       0.141651
  -9.456   0.0747070312  0.97899     2434.50000 0.8594       1.405528       0.140552
  -9.260   0.0747070312  0.97811     2435.00000 0.8609       1.390811       0.139081
  -9.122   0.0747070312  0.97725     2435.50000 0.8627       1.372766       0.137276
  -9.042   0.0747070312  0.97644     2436.00000 0.8648       1.351895       0.135189
  -9.019   0.0747070312  0.97573     2436.50000 0.8671       1.328768       0.132877
  -9.050   0.0747070312  0.97517     2437.00000 0.8696       1.303986       0.130398
  -9.135   0.0747070312  0.97478     2437.50000 0.8722       1.278158       0.127816
  -9.269   0.0747070312  0.97458     2438.00000 0.8748       1.251870       0.125187
  -9.921   0.0747070312  0.97507     2439.50000 0.8825       1.175427       0.117543
 -10.202   0.0747070312  0.97554     2440.00000 0.8848       1.152208       0.115221
 -10.503   0.0747070312  0.97610     2440.50000 0.8869       1.130709       0.113071
 -10.816   0.0747070312  0.97674     2441.00000 0.8889       1.111208       0.111121
 -11.131   0.0747070312  0.97740     2441.50000 0.8906       1.093943       0.109394
 -11.442   0.0747070312  0.97806     2442.00000 0.8921       1.079120       0.107911
 -11.740   0.0747070312  0.97869     2442.50000 0.8933       1.066915       0.106691
 -12.017   0.0747070312  0.97927     2443.00000 0.8943       1.057485       0.105747
 -12.267   0.0747070312  0.97977     2443.50000 0.8949       1.050965       0.105095
 -12.484   0.0747070312  0.98019     2444.00000 0.8953       1.047472       0.104746
 -12.665   0.0747070312  0.98053     2444.50000 0.8953       1.047098       0.104708
 -12.807   0.0747070312  0.98078     2445.00000 0.8950       1.049907       0.104989
 -12.912   0.0747070312  0.98096     2445.50000 0.8944       1.055927       0.105591
 -12.980   0.0747070312  0.98106     2446.00000 0.8935       1.065137       0.106512
 -13.016   0.0747070312  0.98110     2446.50000 0.8923       1.077456       0.107743
 -13.025   0.0747070312  0.98108     2447.00000 0.8907       1.092732       0.109271
 -13.015   0.0747070312  0.98102     2447.50000 0.8889       1.110726       0.111071
 -12.994   0.0747070312  0.98091     2448.00000 0.8869       1.131112       0.113109
 -12.971   0.0747070312  0.98076     2448.50000 0.8847       1.153463       0.115345
 -12.955   0.0747070312  0.98056     2449.00000 0.8823       1.177263       0.117725
 -12.955   0.0747070312  0.98030     2449.50000 0.8798       1.201916       0.120191
 -12.979   0.0747070312  0.97997     2450.00000 0.8773       1.226760       0.122676
 -13.035   0.0747070312  0.97957     2450.50000 0.8749       1.251101       0.125110
 -13.128   0.0747070312  0.97907     2451.00000 0.8726       1.274243       0.127424
 -13.263   0.0747070312  0.97846     2451.50000 0.8704       1.295522       0.129552
 -13.441   0.0747070312  0.97773     2452.00000 0.8686       1.314342       0.131433
 -13.665   0.0747070312  0.97687     2452.50000 0.8670       1.330207       0.133018
 -13.935   0.0747070312  0.97588     2453.00000 0.8657       1.342745       0.134269
 -14.247   0.0747070312  0.97475     2453.50000 0.8648       1.351713       0.135164
 -14.601   0.0747070312  0.97348     2454.00000 0.8643       1.357010       0.135690
 -14.991   0.0747070312  0.97210     2454.50000 0.8641       1.358661       0.135852
 -21.772   0.0747070312  0.95279     2464.00000 0.8882       1.118364       0.111823
 -21.682   0.0747070312  0.95254     2464.50000 0.8885       1.114722       0.111461
 -21.516   0.0747070312  0.95227     2465.00000 0.8886       1.113736       0.111365
 -21.275   0.0747070312  0.95198     2465.50000 0.8885       1.115531       0.111547
 -20.965   0.0747070312  0.95166     2466.00000 0.8880       1.120193       0.112015
 -20.594   0.0747070312  0.95131     2466.50000 0.8872       1.127760       0.112772
 -20.171   0.0747070312  0.95094     2467.00000 0.8862       1.138211       0.113819
 -19.711   0.0747070312  0.95055     2467.50000 0.8849       1.151463       0.115144
 -19.230   0.0747070312  0.95015     2468.00000 0.8833       1.167350       0.116733
 -18.745   0.0747070312  0.94975     2468.50000 0.8814       1.185631       0.118562
 -18.273   0.0747070312  0.94936     2469.00000 0.8794       1.205974       0.120596
 -17.832   0.0747070312  0.94900     2469.50000 0.8772       1.227966       0.122795
 -17.438   0.0747070312  0.94868     2470.00000 0.8749       1.251119       0.125111
 -17.104   0.0747070312  0.94841     2470.50000 0.8725       1.274882       0.127487
 -16.841   0.0747070312  0.94821     2471.00000 0.8701       1.298662       0.129865
 -16.658   0.0747070312  0.94810     2471.50000 0.8678       1.321847       0.132183
 -16.560   0.0747070312  0.94809     2472.00000 0.8656       1.343832       0.134381
 -16.550   0.0747070312  0.94819     2472.50000 0.8636       1.364047       0.136402
 -16.628   0.0747070312  0.94842     2473.00000 0.8618       1.381980       0.138195
 -16.792   0.0747070312  0.94878     2473.50000 0.8603       1.397198       0.139716
 -17.037   0.0747070312  0.94928     2474.00000 0.8591       1.409363       0.140932
 -17.358   0.0747070312  0.94992     2474.50000 0.8582       1.418238       0.141819
 -17.747   0.0747070312  0.95069     2475.00000 0.8576       1.423692       0.142365
 -18.199   0.0747070312  0.95159     2475.50000 0.8574       1.425691       0.142564
 -18.703   0.0747070312  0.95258     2476.00000 0.8576       1.424292       0.142425
 -19.251   0.0747070312  0.95364     2476.50000 0.8580       1.419629       0.141959
 -19.835   0.0747070312  0.95475     2477.00000 0.8588       1.411896       0.141186
 -20.445   0.0747070312  0.95586     2477.50000 0.8599       1.401336       0.140130
 -26.094   0.0747070312  0.96382     2482.50000 0.8794       1.206104       0.120610
 -26.460   0.0747070312  0.96442     2483.00000 0.8815       1.184723       0.118472
 -26.774   0.0747070312  0.96501     2483.50000 0.8836       1.164456       0.116446
 -27.035   0.0747070312  0.96557     2484.00000 0.8854       1.145746       0.114575
 -27.245   0.0747070312  0.96611     2484.50000 0.8871       1.129070       0.112907
 -27.409   0.0747070312  0.96661     2485.00000 0.8885       1.114944       0.111494
 -27.531   0.0747070312  0.96706     2485.50000 0.8896       1.103906       0.110390
 -27.622   0.0747070312  0.96745     2486.00000 0.8903       1.096515       0.109651
 -27.691   0.0747070312  0.96778     2486.50000 0.8907       1.093328       0.109333
 -27.751   0.0747070312  0.96804     2487.00000 0.8905       1.094874       0.109487
 -27.813   0.0747070312  0.96824     2487.50000 0.8898       1.101621       0.110162
 -31.458   0.0747070312  0.96331     2495.00000 0.8441       1.558820       0.155881
 -31.631   0.0747070312  0.96244     2495.50000 0.8435       1.564938       0.156493
 -31.754   0.0747070312  0.96146     2496.00000 0.8436       1.564006       0.156400
 -31.824   0.0747070312  0.96036     2496.50000 0.8444       1.556463       0.155646
 -31.837   0.0747070312  0.95911     2497.00000 0.8457       1.542924       0.154292
 -31.788   0.0747070312  0.95767     2497.50000 0.8476       1.524109       0.152410
 -31.675   0.0747070312  0.95600     2498.00000 0.8499       1.500790       0.150078
 -31.495   0.0747070312  0.95407     2498.50000 0.8526       1.473752       0.147375
 -31.243   0.0747070312  0.95184     2499.00000 0.8556       1.443753       0.144375
 -19.564   0.0747070312  0.91458     2506.50000 0.8982       1.018069       0.101806
 -18.757   0.0747070312  0.91354     2507.00000 0.8989       1.010870       0.101086
 -18.108   0.0747070312  0.91263     2507.50000 0.8992       1.008118       0.100811
 -17.648   0.0747070312  0.91183     2508.00000 0.8990       1.009721       0.100972
 -17.401   0.0747070312  0.91109     2508.50000 0.8985       1.015358       0.101536
 -17.373   0.0747070312  0.91042     2509.00000 0.8976       1.024471       0.102447
 -17.556   0.0747070312  0.90979     2509.50000 0.8964       1.036286       0.103629
 -17.924   0.0747070312  0.90920     2510.00000 0.8950       1.049871       0.104987
 -18.446   0.0747070312  0.90863     2510.50000 0.8936       1.064227       0.106423
 -19.084   0.0747070312  0.90809     2511.00000 0.8922       1.078392       0.107839
 -19.800   0.0747070312  0.90758     2511.50000 0.8908       1.091532       0.109153
 -20.563   0.0747070312  0.90709     2512.00000 0.8897       1.103012       0.110301
 -21.345   0.0747070312  0.90663     2512.50000 0.8888       1.112430       0.111243
 -22.128   0.0747070312  0.90618     2513.00000 0.8880       1.119614       0.111961
 -22.897   0.0747070312  0.90575     2513.50000 0.8875       1.124589       0.112459
 -23.643   0.0747070312  0.90534     2514.00000 0.8872       1.127529       0.112753
 -24.362   0.0747070312  0.90495     2514.50000 0.8871       1.128710       0.112871
 -25.050   0.0747070312  0.90458     2515.00000 0.8872       1.128464       0.112846
 -25.707   0.0747070312  0.90423     2515.50000 0.8873       1.127137       0.112714
 -26.333   0.0747070312  0.90389     2516.00000 0.8875       1.125065       0.112507
 -26.929   0.0747070312  0.90356     2516.50000 0.8877       1.122553       0.112255
 -27.499   0.0747070312  0.90324     2517.00000 0.8880       1.119862       0.111986
 -48.254   0.0747070312  0.90078     2530.00000 0.9155       0.845011       0.084496
 -48.227   0.0747070312  0.90124     2530.50000 0.9155       0.845245       0.084521
 -47.971   0.0747070312  0.90170     2531.00000 0.9151       0.849253       0.084924
 -47.534   0.0747070312  0.90220     2531.50000 0.9143       0.856624       0.085662
 -46.964   0.0747070312  0.90275     2532.00000 0.9133       0.866974       0.086697
 -46.309   0.0747070312  0.90339     2532.50000 0.9120       0.879969       0.087997
 -45.607   0.0747070312  0.90415     2533.00000 0.9105       0.895339       0.089533
 -44.892   0.0747070312  0.90506     2533.50000 0.9087       0.912871       0.091286
 -44.188   0.0747070312  0.90611     2534.00000 0.9068       0.932401       0.093238
 -40.303   0.0747070312  0.91498     2538.00000 0.8855       1.144874       0.114477
 -40.070   0.0747070312  0.91498     2538.50000 0.8825       1.175476       0.117536
 -39.884   0.0747070312  0.91453     2539.00000 0.8794       1.205746       0.120562
 -39.740   0.0747070312  0.91363     2539.50000 0.8765       1.235041       0.123491
 -39.633   0.0747070312  0.91231     2540.00000 0.8738       1.262588       0.126244
 -39.558   0.0747070312  0.91064     2540.50000 0.8713       1.287475       0.128732
 -38.045   0.0747070312  0.87077     2550.50000 0.9113       0.886897       0.088689
 -37.533   0.0747070312  0.86939     2551.00000 0.9101       0.898946       0.089894
 -36.999   0.0747070312  0.86808     2551.50000 0.9084       0.916483       0.091648
 -36.458   0.0747070312  0.86682     2552.00000 0.9062       0.938412       0.093841
 -35.920   0.0747070312  0.86565     2552.50000 0.9036       0.963709       0.096371
 -35.395   0.0747070312  0.86455     2553.00000 0.9009       0.991452       0.099145
 -34.886   0.0747070312  0.86357     2553.50000 0.8979       1.020837       0.102084
 -34.396   0.0747070312  0.86273     2554.00000 0.8949       1.051184       0.105118
 -33.924   0.0747070312  0.86207     2554.50000 0.8918       1.081930       0.108193
 -29.406   0.0747070312  0.86828     2559.50000 0.8655       1.345077       0.134507
 -28.871   0.0747070312  0.86952     2560.00000 0.8637       1.362784       0.136278
 -28.300   0.0747070312  0.87075     2560.50000 0.8622       1.378016       0.137800
 -27.689   0.0747070312  0.87199     2561.00000 0.8610       1.390394       0.139038
 -27.032   0.0747070312  0.87326     2561.50000 0.8601       1.399485       0.139946
 -26.325   0.0747070312  0.87458     2562.00000 0.8595       1.404824       0.140479
 -25.564   0.0747070312  0.87599     2562.50000 0.8594       1.405953       0.140591
 -24.746   0.0747070312  0.87750     2563.00000 0.8598       1.402469       0.140241
 -23.872   0.0747070312  0.87912     2563.50000 0.8606       1.394101       0.139403
 -22.947   0.0747070312  0.88087     2564.00000 0.8619       1.380788       0.138070
 -15.530   0.0747070312  0.90123     2569.00000 0.8854       1.145723       0.114568
 -15.493   0.0747070312  0.90286     2569.50000 0.8866       1.133581       0.113355
 -15.596   0.0747070312  0.90429     2570.00000 0.8875       1.125230       0.112521
 -15.816   0.0747070312  0.90549     2570.50000 0.8880       1.120365       0.112035
 -16.125   0.0747070312  0.90646     2571.00000 0.8881       1.118578       0.111857
 -16.499   0.0747070312  0.90718     2571.50000 0.8881       1.119410       0.111941
 -16.915   0.0747070312  0.90767     2572.00000 0.8878       1.122389       0.112239
 -17.353   0.0747070312  0.90794     2572.50000 0.8873       1.127075       0.112707
 -14.881   0.0747070312  0.90308     2587.00000 0.8579       1.421547       0.142141
 -14.585   0.0747070312  0.90014     2587.50000 0.8625       1.375568       0.137546
 -14.446   0.0747070312  0.89631     2588.00000 0.8673       1.327264       0.132719
 -14.477   0.0747070312  0.89150     2588.50000 0.8721       1.278829       0.127878
 -14.682   0.0747070312  0.88569     2589.00000 0.8768       1.232024       0.123199
 -15.063   0.0747070312  0.87889     2589.50000 0.8812       1.188133       0.118812
 -15.612   0.0747070312  0.87120     2590.00000 0.8852       1.147998       0.114799
 -16.318   0.0747070312  0.86275     2590.50000 0.8888       1.112091       0.111209
 -17.165   0.0747070312  0.85371     2591.00000 0.8919       1.080597       0.108060
 -18.132   0.0747070312  0.84430     2591.50000 0.8947       1.053494       0.105349
 -19.200   0.0747070312  0.83475     2592.00000 0.8969       1.030626       0.103062
 -20.346   0.0747070312  0.82528     2592.50000 0.8988       1.011754       0.101174
 -21.549   0.0747070312  0.81616     2593.00000 0.9003       0.996602       0.099658
 -22.790   0.0747070312  0.80761     2593.50000 0.9015       0.984893       0.098486
 -24.053   0.0747070312  0.79987     2594.00000 0.9024       0.976373       0.097633
 -25.324   0.0747070312  0.79315     2594.50000 0.9029       0.970829       0.097077
 -36.580   0.0747070312  0.77163     2607.00000 0.8898       1.102027       0.110202
 -35.772   0.0747070312  0.77167     2607.50000 0.8958       1.042143       0.104214
 -35.012   0.0747070312  0.77021     2608.00000 0.9016       0.984168       0.098417
 -59.171   0.0747070312  0.75870     2622.00000 0.7679       2.321473       0.232147
 -57.878   0.0747070312  0.76087     2622.50000 0.7725       2.275044       0.227502
 -14.747   0.0747070312  0.83134     2689.00000 0.9093       0.906745       0.090673
 -15.179   0.0747070312  0.83529     2689.50000 0.9123       0.876908       0.087691
 -16.556   0.0747070312  0.83802     2690.00000 0.9146       0.854520       0.085450
 -30.218   0.0747070312  0.86647     2709.00000 0.8776       1.223839       0.122368
 -33.621   0.0747070312  0.86746     2709.50000 0.8774       1.226600       0.122647
 -11.571   0.0747070312  0.82258     2727.50000 0.9243       0.756777       0.075670
 -13.004   0.0747070312  0.82416     2728.00000 0.9292       0.708177       0.070815
   3.178   0.0747070312  0.81811     2745.00000 0.9289       0.710742       0.071072
   4.597   0.0747070312  0.81941     2745.50000 0.9336       0.664121       0.066411
 -28.597   0.0747070312  0.82468     2755.00000 0.8195       1.805353       0.180530
 -26.944   0.0747070312  0.82547     2755.50000 0.8238       1.762140       0.176206
 -25.191   0.0747070312  0.82637     2756.00000 0.8285       1.714864       0.171475
 -39.036   0.0747070312  0.82684     2770.50000 0.8549       1.451276       0.145127
 -38.361   0.0747070312  0.82866     2771.00000 0.8500       1.499674       0.149963
 -37.542   0.0747070312  0.83112     2771.50000 0.8462       1.538501       0.153842
 -36.626   0.0747070312  0.83439     2772.00000 0.8432       1.567878       0.156774
 -35.645   0.0747070312  0.83861     2772.50000 0.8412       1.588020       0.158784
 -26.981   0.0747070312  0.85516     2785.00000 0.9605       0.395496       0.039547
 -29.620   0.0747070312  0.85569     2785.50000 0.9562       0.437669       0.043765
 -31.363   0.0747070312  0.85657     2786.00000 0.9504       0.495911       0.049590
 -32.318   0.0747070312  0.85782     2786.50000 0.9433       0.567057       0.056705
 -32.689   0.0747070312  0.85950     2787.00000 0.9352       0.647850       0.064785
 -30.469   0.0747070312  0.88329     2790.00000 0.8827       1.172885       0.117280
 -29.944   0.0747070312  0.88986     2790.50000 0.8755       1.245571       0.124547
 -29.432   0.0747070312  0.89697     2791.00000 0.8690       1.309657       0.130953
 -28.938   0.0747070312  0.90435     2791.50000 0.8636       1.364152       0.136401
 -42.659   0.0747070312  0.92317     2804.50000 0.9106       0.894221       0.089410
 -40.683   0.0747070312  0.90316     2807.50000 0.8817       1.183042       0.118299
 -39.804   0.0747070312  0.90005     2808.00000 0.8772       1.227776       0.122773
 -38.859   0.0747070312  0.89732     2808.50000 0.8732       1.268006       0.126797
 -37.865   0.0747070312  0.89507     2809.00000 0.8697       1.302906       0.130288
 -36.839   0.0747070312  0.89339     2809.50000 0.8668       1.331896       0.133187
 -35.792   0.0747070312  0.89231     2810.00000 0.8645       1.354632       0.135461
 -34.732   0.0747070312  0.89181     2810.50000 0.8629       1.370984       0.137097
 -33.668   0.0747070312  0.89173     2811.00000 0.8619       1.381017       0.138101
 -32.607   0.0747070312  0.89185     2811.50000 0.8615       1.384956       0.138495
 -31.553   0.0747070312  0.89192     2812.00000 0.8617       1.383163       0.138316
 -30.515   0.0747070312  0.89182     2812.50000 0.8624       1.376108       0.137611
 -29.497   0.0747070312  0.89165     2813.00000 0.8636       1.364336       0.136433
 -24.441   0.0747070312  0.88737     2824.00000 0.8971       1.028877       0.102875
 -24.435   0.0747070312  0.88744     2824.50000 0.8965       1.034739       0.103463
 -24.300   0.0747070312  0.88756     2825.00000 0.8959       1.041128       0.104103
 -24.029   0.0747070312  0.88769     2825.50000 0.8952       1.047637       0.104756
 -23.620   0.0747070312  0.88781     2826.00000 0.8946       1.053911       0.105385
 -23.076   0.0747070312  0.88790     2826.50000 0.8940       1.059658       0.105961
 -22.403   0.0747070312  0.88796     2827.00000 0.8935       1.064654       0.106462
 -21.612   0.0747070312  0.88798     2827.50000 0.8931       1.068743       0.106872
 -20.714   0.0747070312  0.88801     2828.00000 0.8928       1.071824       0.107181
 -19.723   0.0747070312  0.88809     2828.50000 0.8926       1.073855       0.107385
 -18.656   0.0747070312  0.88830     2829.00000 0.8925       1.074832       0.107483
 -17.530   0.0747070312  0.88876     2829.50000 0.8925       1.074784       0.107478
 -16.364   0.0747070312  0.88956     2830.00000 0.8926       1.073755       0.107376
 -15.178   0.0747070312  0.89080     2830.50000 0.8928       1.071807       0.107181
 -13.993   0.0747070312  0.89253     2831.00000 0.8931       1.069004       0.106900
 -12.832   0.0747070312  0.89473     2831.50000 0.8935       1.065407       0.106541
 -11.718   0.0747070312  0.89733     2832.00000 0.8939       1.061077       0.106108
 -10.675   0.0747070312  0.90020     2832.50000 0.8944       1.056072       0.105607
  -9.727   0.0747070312  0.90319     2833.00000 0.8950       1.050450       0.105045
  -8.900   0.0747070312  0.90615     2833.50000 0.8956       1.044277       0.104428
  -8.220   0.0747070312  0.90895     2834.00000 0.8962       1.037634       0.103763
  -7.710   0.0747070312  0.91149     2834.50000 0.8969       1.030625       0.103062
  -7.396   0.0747070312  0.91368     2835.00000 0.8977       1.023394       0.102337
  -7.299   0.0747070312  0.91549     2835.50000 0.8984       1.016132       0.101610
  -7.440   0.0747070312  0.91688     2836.00000 0.8991       1.009089       0.100903
  -7.835   0.0747070312  0.91784     2836.50000 0.8998       1.002580       0.100250
  -8.493   0.0747070312  0.91841     2837.00000 0.9003       0.996991       0.099687
 -33.407   0.0747070312  0.90918     2846.00000 0.8704       1.295772       0.129558
 -33.617   0.0747070312  0.90907     2846.50000 0.8688       1.312662       0.131249
 -33.679   0.0747070312  0.90898     2847.00000 0.8675       1.325187       0.132504
 -33.605   0.0747070312  0.90888     2847.50000 0.8667       1.332939       0.133282
 -33.410   0.0747070312  0.90876     2848.00000 0.8664       1.335630       0.133553
 -22.994   0.0747070312  0.90377     2856.00000 0.9085       0.915151       0.091511
 -22.836   0.0747070312  0.90390     2856.50000 0.9103       0.897158       0.089710
 -22.922   0.0747070312  0.90417     2857.00000 0.9114       0.885924       0.088584
 -23.268   0.0747070312  0.90462     2857.50000 0.9118       0.882320       0.088220
 -31.406   0.0747070312  0.97815     2873.50000 0.9017       0.982551       0.098253
 -31.149   0.0747070312  0.97803     2874.00000 0.9073       0.927195       0.092718
 -31.000   0.0747070312  0.97798     2874.50000 0.9118       0.881761       0.088175
 -30.975   0.0747070312  0.97800     2875.00000 0.9153       0.847442       0.084743
 -31.079   0.0747070312  0.97805     2875.50000 0.9175       0.825125       0.082512
 -31.301   0.0747070312  0.97810     2876.00000 0.9185       0.815382       0.081538
 -28.123   0.0747070312  0.93766     2894.50000 0.8616       1.384164       0.138414
 -29.037   0.0747070312  0.93694     2895.00000 0.8617       1.383337       0.138329
 -30.034   0.0747070312  0.93575     2895.50000 0.8609       1.391202       0.139114
 -31.085   0.0747070312  0.93398     2896.00000 0.8591       1.408728       0.140866
 -32.151   0.0747070312  0.93148     2896.50000 0.8563       1.436764       0.143669
 -33.190   0.0747070312  0.92810     2897.00000 0.8524       1.475951       0.147589
 -34.154   0.0747070312  0.92366     2897.50000 0.8473       1.526596       0.152655
 -35.000   0.0747070312  0.91802     2898.00000 0.8411       1.588539       0.158852
 -35.687   0.0747070312  0.91103     2898.50000 0.8339       1.660994       0.166099
 -36.184   0.0747070312  0.90258     2899.00000 0.8258       1.742398       0.174240
 -36.470   0.0747070312  0.89265     2899.50000 0.8170       1.830300       0.183028
 -36.536   0.0747070312  0.88128     2900.00000 0.8079       1.921326       0.192124
 -36.381   0.0747070312  0.86856     2900.50000 0.7989       2.011274       0.201108
 -33.796   0.0747070312  0.81063     3141.00000 0.8613       1.387028       0.138701
 -33.166   0.0747070312  0.81072     3141.50000 0.8593       1.407291       0.140726
 -32.689   0.0747070312  0.81042     3142.00000 0.8582       1.417687       0.141762
 -32.414   0.0747070312  0.81026     3142.50000 0.8584       1.415862       0.141574
 -57.973   0.0747070312  0.85109     3150.50000 0.9000       1.000099       0.099995
 -58.491   0.0747070312  0.84745     3151.00000 0.8981       1.018913       0.101883
 -58.807   0.0747070312  0.84227     3151.50000 0.8960       1.040535       0.104050
 -58.960   0.0747070312  0.83586     3152.00000 0.8935       1.064700       0.106469
 -58.982   0.0747070312  0.82848     3152.50000 0.8909       1.091291       0.109129
 -58.901   0.0747070312  0.82039     3153.00000 0.8880       1.120307       0.112030
 -58.737   0.0747070312  0.81174     3153.50000 0.8848       1.151839       0.115181
 -58.508   0.0747070312  0.80270     3154.00000 0.8814       1.186050       0.118597
 -58.227   0.0747070312  0.79337     3154.50000 0.8777       1.223158       0.122301
  20.539   0.0747070312  0.81752     3220.50000 0.8588       1.411661       0.141156
  20.899   0.0747070312  0.82287     3221.00000 0.8608       1.392007       0.139198
  21.050   0.0747070312  0.82747     3221.50000 0.8623       1.377338       0.137734
  21.030   0.0747070312  0.83141     3222.00000 0.8633       1.366819       0.136680
  -5.237   0.0747070312  0.78001     3231.50000 0.7980       2.019946       0.201986
  17.222   0.0747070312  0.77275     3237.50000 0.8903       1.097236       0.109718
  17.412   0.0747070312  0.77777     3238.00000 0.8888       1.112429       0.111240
  17.411   0.0747070312  0.78344     3238.50000 0.8868       1.131958       0.113195
  17.265   0.0747070312  0.78968     3239.00000 0.8845       1.155179       0.115518
  17.010   0.0747070312  0.79631     3239.50000 0.8818       1.181681       0.118168
  16.672   0.0747070312  0.80315     3240.00000 0.8789       1.211226       0.121120
  16.267   0.0747070312  0.81003     3240.50000 0.8756       1.243709       0.124366
  15.809   0.0747070312  0.81681     3241.00000 0.8721       1.279145       0.127906
  15.303   0.0747070312  0.82345     3241.50000 0.8682       1.317652       0.131752
  20.617   0.0747070312  0.82796     3253.50000 0.9498       0.502448       0.050242
  23.695   0.0747070312  0.82722     3254.00000 0.9466       0.533907       0.053389
  26.055   0.0747070312  0.82656     3254.50000 0.9429       0.570956       0.057095
  27.873   0.0747070312  0.82596     3255.00000 0.9388       0.612015       0.061201
  29.290   0.0747070312  0.82541     3255.50000 0.9344       0.656205       0.065620
  30.405   0.0747070312  0.82497     3256.00000 0.9297       0.703051       0.070305
  21.004   0.0747070312  0.85387     3265.50000 0.7875       2.125086       0.212483
 -25.347   0.0747070312  0.75346     3415.50000 0.8818       1.182491       0.118238
 -24.038   0.0747070312  0.76218     3416.00000 0.8815       1.184933       0.118477
 -15.079   0.0747070312  0.80703     3419.00000 0.8789       1.211505       0.121136
 -13.819   0.0747070312  0.81123     3419.50000 0.8782       1.218244       0.121815
 -12.774   0.0747070312  0.81396     3420.00000 0.8775       1.224873       0.122483
 -12.002   0.0747070312  0.81522     3420.50000 0.8769       1.230780       0.123077
 -11.550   0.0747070312  0.81515     3421.00000 0.8765       1.235315       0.123532
 -11.454   0.0747070312  0.81404     3421.50000 0.8762       1.237910       0.123789
 -11.726   0.0747070312  0.81228     3422.00000 0.8762       1.238197       0.123813
  -5.116   0.0793457031  0.95009     2142.00000 0.8696       1.304342       0.130422
  -4.789   0.0793457031  0.94877     2142.50000 0.8708       1.291772       0.129169
  -4.462   0.0793457031  0.94772     2143.00000 0.8722       1.278316       0.127826
  -4.124   0.0793457031  0.94692     2143.50000 0.8736       1.264206       0.126418
  -3.766   0.0793457031  0.94637     2144.00000 0.8750       1.249784       0.124977
  -3.380   0.0793457031  0.94603     2144.50000 0.8765       1.235478       0.123547
   0.594   0.0793457031  0.94492     2150.00000 0.8824       1.175518       0.117552
   0.544   0.0793457031  0.94438     2150.50000 0.8822       1.178458       0.117846
   0.375   0.0793457031  0.94375     2151.00000 0.8818       1.181732       0.118173
   0.086   0.0793457031  0.94303     2151.50000 0.8815       1.185127       0.118512
  -0.323   0.0793457031  0.94225     2152.00000 0.8812       1.188487       0.118848
  -0.848   0.0793457031  0.94139     2152.50000 0.8808       1.191718       0.119170
  -1.483   0.0793457031  0.94048     2153.00000 0.8805       1.194769       0.119475
  -2.218   0.0793457031  0.93951     2153.50000 0.8802       1.197622       0.119759
  -3.042   0.0793457031  0.93848     2154.00000 0.8800       1.200268       0.120021
 -19.498   0.0793457031  0.92842     2169.50000 0.8939       1.061108       0.106097
 -18.340   0.0793457031  0.92852     2170.00000 0.8916       1.084118       0.108400
 -17.081   0.0793457031  0.92858     2170.50000 0.8892       1.108055       0.110795
 -15.756   0.0793457031  0.92863     2171.00000 0.8868       1.132172       0.113208
 -14.396   0.0793457031  0.92867     2171.50000 0.8844       1.155672       0.115559
 -13.030   0.0793457031  0.92872     2172.00000 0.8822       1.177738       0.117766
 -11.683   0.0793457031  0.92880     2172.50000 0.8803       1.197576       0.119750
 -10.375   0.0793457031  0.92891     2173.00000 0.8786       1.214469       0.121439
  -9.125   0.0793457031  0.92908     2173.50000 0.8772       1.227821       0.122774
  -7.945   0.0793457031  0.92931     2174.00000 0.8763       1.237206       0.123713
  -6.846   0.0793457031  0.92962     2174.50000 0.8758       1.242393       0.124231
  -5.833   0.0793457031  0.93000     2175.00000 0.8757       1.243363       0.124328
  -4.910   0.0793457031  0.93045     2175.50000 0.8760       1.240300       0.124021
  -4.081   0.0793457031  0.93097     2176.00000 0.8767       1.233565       0.123347
  -3.344   0.0793457031  0.93153     2176.50000 0.8776       1.223664       0.122357
  -2.698   0.0793457031  0.93214     2177.00000 0.8789       1.211198       0.121110
  -2.140   0.0793457031  0.93276     2177.50000 0.8803       1.196822       0.119672
  -1.664   0.0793457031  0.93337     2178.00000 0.8819       1.181200       0.118109
  -1.265   0.0793457031  0.93394     2178.50000 0.8835       1.164975       0.116487
  -0.938   0.0793457031  0.93447     2179.00000 0.8851       1.148739       0.114863
  -0.677   0.0793457031  0.93493     2179.50000 0.8867       1.133022       0.113291
  -0.474   0.0793457031  0.93531     2180.00000 0.8882       1.118275       0.111816
  -0.326   0.0793457031  0.93560     2180.50000 0.8895       1.104873       0.110475
  -4.879   0.0793457031  0.94434     2191.50000 0.8926       1.073801       0.107364
  -4.965   0.0793457031  0.94574     2192.00000 0.8927       1.073149       0.107299
  -4.987   0.0793457031  0.94727     2192.50000 0.8926       1.073804       0.107365
  -4.947   0.0793457031  0.94891     2193.00000 0.8924       1.076130       0.107598
  -4.850   0.0793457031  0.95062     2193.50000 0.8920       1.080418       0.108027
  -4.703   0.0793457031  0.95236     2194.00000 0.8913       1.086884       0.108675
  -4.516   0.0793457031  0.95407     2194.50000 0.8904       1.095643       0.109551
  -4.301   0.0793457031  0.95568     2195.00000 0.8893       1.106709       0.110659
  -4.070   0.0793457031  0.95716     2195.50000 0.8880       1.119988       0.111987
  -3.836   0.0793457031  0.95844     2196.00000 0.8865       1.135286       0.113518
  -3.612   0.0793457031  0.95949     2196.50000 0.8848       1.152313       0.115222
  -3.406   0.0793457031  0.96030     2197.00000 0.8829       1.170700       0.117061
  -3.230   0.0793457031  0.96087     2197.50000 0.8810       1.190010       0.118993
  -3.088   0.0793457031  0.96121     2198.00000 0.8790       1.209767       0.120970
  -2.987   0.0793457031  0.96134     2198.50000 0.8771       1.229471       0.122941
  -2.929   0.0793457031  0.96130     2199.00000 0.8751       1.248625       0.124857
  -2.914   0.0793457031  0.96113     2199.50000 0.8733       1.266753       0.126671
  -2.944   0.0793457031  0.96087     2200.00000 0.8717       1.283425       0.128339
  -3.016   0.0793457031  0.96056     2200.50000 0.8702       1.298266       0.129823
  -3.128   0.0793457031  0.96024     2201.00000 0.8689       1.310967       0.131094
  -3.277   0.0793457031  0.95993     2201.50000 0.8679       1.321295       0.132127
  -3.459   0.0793457031  0.95966     2202.00000 0.8671       1.329087       0.132907
  -3.671   0.0793457031  0.95946     2202.50000 0.8666       1.334250       0.133423
  -3.908   0.0793457031  0.95932     2203.00000 0.8663       1.336751       0.133674
  -4.168   0.0793457031  0.95927     2203.50000 0.8663       1.336611       0.133660
  -4.445   0.0793457031  0.95931     2204.00000 0.8666       1.333891       0.133388
  -4.736   0.0793457031  0.95943     2204.50000 0.8671       1.328686       0.132867
  -5.037   0.0793457031  0.95962     2205.00000 0.8679       1.321117       0.132110
  -5.346   0.0793457031  0.95990     2205.50000 0.8689       1.311319       0.131130
  -5.659   0.0793457031  0.96024     2206.00000 0.8701       1.299442       0.129942
  -5.973   0.0793457031  0.96064     2206.50000 0.8714       1.285638       0.128562
  -6.288   0.0793457031  0.96110     2207.00000 0.8730       1.270071       0.127005
  -6.600   0.0793457031  0.96160     2207.50000 0.8747       1.252903       0.125288
  -6.911   0.0793457031  0.96215     2208.00000 0.8766       1.234298       0.123427
  -8.887   0.0793457031  0.96609     2211.00000 0.8897       1.102876       0.110285
  -9.284   0.0793457031  0.96680     2211.50000 0.8920       1.079792       0.107977
  -9.720   0.0793457031  0.96751     2212.00000 0.8943       1.057176       0.105716
 -10.200   0.0793457031  0.96820     2212.50000 0.8965       1.035432       0.103542
 -10.729   0.0793457031  0.96886     2213.00000 0.8985       1.015008       0.101500
 -11.307   0.0793457031  0.96947     2213.50000 0.9004       0.996391       0.099639
 -11.931   0.0793457031  0.97003     2214.00000 0.9020       0.980087       0.098009
 -12.590   0.0793457031  0.97052     2214.50000 0.9033       0.966597       0.096660
 -13.273   0.0793457031  0.97093     2215.00000 0.9044       0.956393       0.095639
 -13.959   0.0793457031  0.97125     2215.50000 0.9050       0.949883       0.094987
 -14.629   0.0793457031  0.97150     2216.00000 0.9053       0.947390       0.094736
 -15.258   0.0793457031  0.97166     2216.50000 0.9051       0.949119       0.094908
 -13.498   0.0793457031  0.97717     2225.50000 0.8690       1.310124       0.130993
 -13.133   0.0793457031  0.97801     2226.00000 0.8686       1.314595       0.131441
 -12.795   0.0793457031  0.97887     2226.50000 0.8685       1.315167       0.131500
 -12.490   0.0793457031  0.97975     2227.00000 0.8688       1.311925       0.131177
 -12.221   0.0793457031  0.98062     2227.50000 0.8695       1.305031       0.130489
 -11.992   0.0793457031  0.98149     2228.00000 0.8705       1.294714       0.129458
 -11.499   0.0793457031  0.98701     2231.50000 0.8845       1.155170       0.115513
 -11.562   0.0793457031  0.98772     2232.00000 0.8870       1.130293       0.113026
 -11.646   0.0793457031  0.98841     2232.50000 0.8895       1.105377       0.110536
 -11.743   0.0793457031  0.98908     2233.00000 0.8919       1.080803       0.108079
 -11.847   0.0793457031  0.98973     2233.50000 0.8943       1.056952       0.105695
 -11.950   0.0793457031  0.99035     2234.00000 0.8966       1.034198       0.103420
 -12.045   0.0793457031  0.99095     2234.50000 0.8987       1.012915       0.101291
 -12.128   0.0793457031  0.99151     2235.00000 0.9007       0.993477       0.099348
 -12.191   0.0793457031  0.99204     2235.50000 0.9024       0.976255       0.097625
 -12.234   0.0793457031  0.99252     2236.00000 0.9038       0.961616       0.096161
 -12.256   0.0793457031  0.99295     2236.50000 0.9050       0.949914       0.094991
 -12.259   0.0793457031  0.99334     2237.00000 0.9059       0.941474       0.094146
 -12.249   0.0793457031  0.99368     2237.50000 0.9063       0.936576       0.093656
 -12.234   0.0793457031  0.99398     2238.00000 0.9065       0.935436       0.093542
 -12.222   0.0793457031  0.99424     2238.50000 0.9062       0.938185       0.093817
 -12.223   0.0793457031  0.99446     2239.00000 0.9055       0.944849       0.094483
 -12.245   0.0793457031  0.99464     2239.50000 0.9045       0.955338       0.095532
 -12.294   0.0793457031  0.99478     2240.00000 0.9031       0.969437       0.096942
 -12.374   0.0793457031  0.99489     2240.50000 0.9013       0.986815       0.098680
 -12.485   0.0793457031  0.99495     2241.00000 0.8993       1.007029       0.100702
 -12.626   0.0793457031  0.99499     2241.50000 0.8970       1.029549       0.102954
 -12.793   0.0793457031  0.99498     2242.00000 0.8946       1.053777       0.105377
 -12.979   0.0793457031  0.99494     2242.50000 0.8921       1.079079       0.107907
 -13.178   0.0793457031  0.99487     2243.00000 0.8895       1.104807       0.110480
 -13.385   0.0793457031  0.99477     2243.50000 0.8870       1.130331       0.113033
 -13.592   0.0793457031  0.99466     2244.00000 0.8845       1.155056       0.115506
 -13.793   0.0793457031  0.99453     2244.50000 0.8822       1.178442       0.117844
 -13.985   0.0793457031  0.99438     2245.00000 0.8800       1.200015       0.120001
 -14.164   0.0793457031  0.99423     2245.50000 0.8781       1.219376       0.121937
 -14.326   0.0793457031  0.99407     2246.00000 0.8764       1.236201       0.123619
 -14.470   0.0793457031  0.99391     2246.50000 0.8750       1.250242       0.125023
 -14.596   0.0793457031  0.99375     2247.00000 0.8739       1.261325       0.126130
 -14.705   0.0793457031  0.99359     2247.50000 0.8731       1.269341       0.126931
 -14.798   0.0793457031  0.99345     2248.00000 0.8726       1.274252       0.127421
 -14.879   0.0793457031  0.99332     2248.50000 0.8724       1.276073       0.127603
 -14.953   0.0793457031  0.99320     2249.00000 0.8725       1.274880       0.127482
 -15.023   0.0793457031  0.99310     2249.50000 0.8729       1.270800       0.127073
 -15.095   0.0793457031  0.99301     2250.00000 0.8736       1.264008       0.126392
 -15.174   0.0793457031  0.99293     2250.50000 0.8745       1.254728       0.125463
 -15.265   0.0793457031  0.99284     2251.00000 0.8757       1.243220       0.124311
 -15.372   0.0793457031  0.99274     2251.50000 0.8770       1.229782       0.122966
 -15.499   0.0793457031  0.99262     2252.00000 0.8785       1.214736       0.121460
 -15.646   0.0793457031  0.99247     2252.50000 0.8802       1.198422       0.119827
 -15.813   0.0793457031  0.99228     2253.00000 0.8819       1.181194       0.118104
 -15.996   0.0793457031  0.99204     2253.50000 0.8837       1.163403       0.116324
 -16.192   0.0793457031  0.99176     2254.00000 0.8855       1.145395       0.114523
 -16.392   0.0793457031  0.99143     2254.50000 0.8873       1.127505       0.112734
 -16.588   0.0793457031  0.99108     2255.00000 0.8890       1.110045       0.110989
 -16.770   0.0793457031  0.99070     2255.50000 0.8907       1.093311       0.109317
 -16.925   0.0793457031  0.99032     2256.00000 0.8923       1.077569       0.107744
 -17.043   0.0793457031  0.98995     2256.50000 0.8937       1.063062       0.106295
 -17.112   0.0793457031  0.98961     2257.00000 0.8950       1.050003       0.104990
 -17.123   0.0793457031  0.98931     2257.50000 0.8961       1.038581       0.103850
 -17.067   0.0793457031  0.98907     2258.00000 0.8971       1.028951       0.102889
 -16.942   0.0793457031  0.98889     2258.50000 0.8979       1.021240       0.102120
 -16.746   0.0793457031  0.98876     2259.00000 0.8984       1.015538       0.101551
 -16.483   0.0793457031  0.98869     2259.50000 0.8988       1.011900       0.101189
 -17.739   0.0793457031  0.98513     2270.50000 0.8852       1.147774       0.114775
 -18.108   0.0793457031  0.98499     2271.00000 0.8850       1.149754       0.114974
 -18.404   0.0793457031  0.98488     2271.50000 0.8849       1.150989       0.115098
 -18.616   0.0793457031  0.98480     2272.00000 0.8849       1.151467       0.115146
 -18.734   0.0793457031  0.98474     2272.50000 0.8849       1.151179       0.115118
 -18.751   0.0793457031  0.98471     2273.00000 0.8850       1.150113       0.115011
 -18.662   0.0793457031  0.98469     2273.50000 0.8852       1.148270       0.114827
 -18.466   0.0793457031  0.98465     2274.00000 0.8854       1.145655       0.114565
 -18.163   0.0793457031  0.98459     2274.50000 0.8858       1.142290       0.114227
 -17.757   0.0793457031  0.98445     2275.00000 0.8862       1.138216       0.113819
 -17.254   0.0793457031  0.98423     2275.50000 0.8867       1.133494       0.113345
 -16.660   0.0793457031  0.98389     2276.00000 0.8872       1.128209       0.112815
 -15.986   0.0793457031  0.98342     2276.50000 0.8878       1.122474       0.112240
 -15.245   0.0793457031  0.98278     2277.00000 0.8884       1.116425       0.111634
 -14.451   0.0793457031  0.98198     2277.50000 0.8890       1.110227       0.111012
 -13.618   0.0793457031  0.98101     2278.00000 0.8896       1.104068       0.110395
 -12.766   0.0793457031  0.97989     2278.50000 0.8902       1.098152       0.109802
 -11.914   0.0793457031  0.97863     2279.00000 0.8907       1.092697       0.109256
 -11.081   0.0793457031  0.97726     2279.50000 0.8912       1.087926       0.108779
 -10.290   0.0793457031  0.97580     2280.00000 0.8916       1.084062       0.108393
  -9.562   0.0793457031  0.97430     2280.50000 0.8919       1.081310       0.108119
  -8.918   0.0793457031  0.97278     2281.00000 0.8920       1.079862       0.107975
  -8.378   0.0793457031  0.97127     2281.50000 0.8920       1.079884       0.107979
  -7.960   0.0793457031  0.96981     2282.00000 0.8919       1.081508       0.108143
  -7.676   0.0793457031  0.96843     2282.50000 0.8915       1.084832       0.108477
  -7.537   0.0793457031  0.96714     2283.00000 0.8910       1.089921       0.108988
  -7.547   0.0793457031  0.96597     2283.50000 0.8903       1.096791       0.109677
  -7.707   0.0793457031  0.96494     2284.00000 0.8895       1.105421       0.110541
  -8.011   0.0793457031  0.96404     2284.50000 0.8884       1.115740       0.111574
  -8.448   0.0793457031  0.96328     2285.00000 0.8872       1.127630       0.112763
  -9.004   0.0793457031  0.96267     2285.50000 0.8859       1.140913       0.114091
  -9.662   0.0793457031  0.96219     2286.00000 0.8845       1.155362       0.115536
 -10.400   0.0793457031  0.96183     2286.50000 0.8829       1.170691       0.117067
 -11.199   0.0793457031  0.96157     2287.00000 0.8813       1.186558       0.118653
 -12.037   0.0793457031  0.96141     2287.50000 0.8797       1.202581       0.120254
 -12.893   0.0793457031  0.96130     2288.00000 0.8782       1.218336       0.121828
 -13.749   0.0793457031  0.96124     2288.50000 0.8767       1.233380       0.123331
 -14.588   0.0793457031  0.96119     2289.00000 0.8753       1.247265       0.124718
 -15.398   0.0793457031  0.96115     2289.50000 0.8741       1.259558       0.125946
 -16.165   0.0793457031  0.96109     2290.00000 0.8730       1.269856       0.126975
 -16.882   0.0793457031  0.96101     2290.50000 0.8722       1.277807       0.127770
 -17.541   0.0793457031  0.96091     2291.00000 0.8717       1.283124       0.128302
 -18.137   0.0793457031  0.96078     2291.50000 0.8715       1.285600       0.128550
