-160.211   0.4689941406  0.75365     1076.00000 0.7061       2.938969       0.293883
 114.048   0.4689941406  0.78518     3422.00000 0.8530       1.469930       0.146988
-160.199   0.4736328125  0.75818     1076.00000 0.6972       3.028182       0.302803
 113.893   0.4736328125  0.78949     3422.00000 0.8491       1.509098       0.150904
 -69.563   0.4736328125  0.75258     3971.50000 0.8453       1.546815       0.154680
-160.188   0.4782714844  0.76348     1076.00000 0.6881       3.118981       0.311881
 113.741   0.4782714844  0.79359     3422.00000 0.8451       1.548879       0.154883
 -69.721   0.4782714844  0.75663     3971.50000 0.8416       1.583731       0.158371
-160.179   0.4829101562  0.76951     1076.00000 0.6789       3.211345       0.321116
 -66.605   0.4829101562  0.75120     2831.50000 0.8026       1.974426       0.197438
 113.592   0.4829101562  0.79756     3422.00000 0.8411       1.589270       0.158922
 -69.872   0.4829101562  0.76042     3971.50000 0.8379       1.621185       0.162117
-160.171   0.4875488281  0.77619     1076.00000 0.6695       3.305245       0.330504
 -66.626   0.4875488281  0.75383     2831.50000 0.7981       2.019169       0.201912
 113.444   0.4875488281  0.80143     3422.00000 0.8370       1.630268       0.163022
 -70.018   0.4875488281  0.76398     3971.50000 0.8341       1.659178       0.165916
-160.165   0.4921875000  0.78338     1076.00000 0.6600       3.400655       0.340043
 113.299   0.4921875000  0.80521     3422.00000 0.8328       1.671869       0.167182
 -70.158   0.4921875000  0.76732     3971.50000 0.8302       1.697713       0.169770
-160.161   0.4968261719  0.79094     1076.00000 0.6503       3.497545       0.349730
 113.157   0.4968261719  0.80893     3422.00000 0.8286       1.714070       0.171402
 -70.293   0.4968261719  0.77046     3971.50000 0.8263       1.736782       0.173676
 113.017   0.5014648438  0.81260     3422.00000 0.8243       1.756871       0.175682
 -70.422   0.5014648438  0.77340     3971.50000 0.8224       1.776368       0.177635
2009   2  2 13 33 150
 118.330   0.0607910156  0.76014     1590.00000 0.4277       5.722666       0.572264
 118.221   0.0654296875  0.77543     1591.50000 0.5192       4.808096       0.480756
 133.534   0.0654296875  0.83589     1608.50000 0.3016       6.983770       0.698363
 116.263   0.0839843750  0.79041     1592.50000 0.6738       3.262707       0.326243
  63.372   0.2045898438  0.76660      350.00000 0.9142       0.858484       0.085846
  64.943   0.2092285156  0.77534      349.50000 0.9197       0.803142       0.080314
  62.900   0.2092285156  0.76733      350.00000 0.9169       0.830554       0.083054
  64.163   0.2138671875  0.82255      349.50000 0.9215       0.785402       0.078540
  62.495   0.2138671875  0.83383      350.00000 0.9194       0.806148       0.080614
 -33.390   0.2138671875  0.76480     3847.50000 0.9535       0.465124       0.046512
 -33.989   0.2138671875  0.76384     3848.00000 0.9482       0.518075       0.051807
 -30.778   0.2138671875  0.75807     3849.00000 0.9175       0.825021       0.082502
 -28.779   0.2138671875  0.75640     3849.50000 0.9146       0.853682       0.085367
  63.472   0.2185058594  0.78216      349.50000 0.9230       0.769716       0.076971
  62.132   0.2185058594  0.79930      350.00000 0.9215       0.784833       0.078482
 -34.323   0.2185058594  0.78613     3847.50000 0.9537       0.463469       0.046346
 -34.667   0.2185058594  0.79198     3848.00000 0.9481       0.519219       0.051921
 -31.068   0.2185058594  0.78779     3849.00000 0.9168       0.831633       0.083163
 -29.002   0.2185058594  0.78956     3849.50000 0.9138       0.862394       0.086238
 -27.049   0.2185058594  0.76869     3850.00000 0.9218       0.781924       0.078191
  62.840   0.2231445312  0.80497      349.50000 0.9244       0.755931       0.075593
  61.793   0.2231445312  0.81485      350.00000 0.9234       0.766247       0.076624
 -33.861   0.2231445312  0.77419     3847.00000 0.9462       0.537618       0.053762
 -35.170   0.2231445312  0.80207     3847.50000 0.9540       0.459737       0.045973
 -31.307   0.2231445312  0.82169     3849.00000 0.9163       0.837448       0.083744
 -29.177   0.2231445312  0.81559     3849.50000 0.9130       0.870466       0.087045
 -27.174   0.2231445312  0.80595     3850.00000 0.9208       0.792071       0.079205
 -25.396   0.2231445312  0.78563     3850.50000 0.9345       0.654609       0.065458
  62.252   0.2277832031  0.80085      349.50000 0.9256       0.743898       0.074390
  61.467   0.2277832031  0.81132      350.00000 0.9250       0.750074       0.075006
 -35.951   0.2277832031  0.81044     3847.50000 0.9546       0.454186       0.045418
 -31.502   0.2277832031  0.83654     3849.00000 0.9157       0.842627       0.084262
 -29.313   0.2277832031  0.83122     3849.50000 0.9122       0.878031       0.087802
 -27.259   0.2277832031  0.82249     3850.00000 0.9198       0.801552       0.080153
 -25.406   0.2277832031  0.80256     3850.50000 0.9333       0.666577       0.066655
 -24.457   0.2277832031  0.76254     3851.00000 0.9486       0.513970       0.051393
  61.695   0.2324218750  0.78597      349.50000 0.9267       0.733471       0.073347
  61.147   0.2324218750  0.79678      350.00000 0.9264       0.736043       0.073603
 -36.681   0.2324218750  0.80944     3847.50000 0.9553       0.447035       0.044702
 -31.663   0.2324218750  0.84549     3849.00000 0.9153       0.847308       0.084730
 -29.420   0.2324218750  0.84101     3849.50000 0.9115       0.885210       0.088519
 -27.315   0.2324218750  0.83317     3850.00000 0.9190       0.810480       0.081046
 -25.384   0.2324218750  0.81362     3850.50000 0.9322       0.677704       0.067768
 -24.268   0.2324218750  0.77274     3851.00000 0.9471       0.528546       0.052851
  61.161   0.2370605469  0.76702      349.50000 0.9275       0.724508       0.072450
  60.828   0.2370605469  0.76727      350.00000 0.9276       0.723910       0.072390
 -36.183   0.2370605469  0.78688     3847.00000 0.9489       0.511296       0.051129
 -37.372   0.2370605469  0.79272     3847.50000 0.9562       0.438470       0.043846
 -31.795   0.2370605469  0.84333     3849.00000 0.9148       0.851613       0.085160
 -29.503   0.2370605469  0.84469     3849.50000 0.9108       0.892105       0.089209
 -27.351   0.2370605469  0.84387     3850.00000 0.9181       0.818956       0.081894
 -25.341   0.2370605469  0.83543     3850.50000 0.9312       0.688093       0.068807
 -24.056   0.2370605469  0.81199     3851.00000 0.9458       0.542003       0.054196
 -36.887   0.2416992188  0.75300     3847.00000 0.9500       0.500279       0.050027
 -38.034   0.2416992188  0.77535     3847.50000 0.9571       0.428648       0.042863
 -31.903   0.2416992188  0.84348     3849.00000 0.9144       0.855649       0.085563
 -29.568   0.2416992188  0.84543     3849.50000 0.9101       0.898808       0.089879
 -27.374   0.2416992188  0.84539     3850.00000 0.9173       0.827065       0.082704
 -25.287   0.2416992188  0.83774     3850.50000 0.9302       0.697830       0.069780
 -23.835   0.2416992188  0.81451     3851.00000 0.9446       0.554440       0.055440
 -38.674   0.2463378906  0.76481     3847.50000 0.9582       0.417709       0.041769
 -31.989   0.2463378906  0.84042     3849.00000 0.9141       0.859508       0.085949
 -29.618   0.2463378906  0.84287     3849.50000 0.9095       0.905397       0.090538
 -27.388   0.2463378906  0.84355     3850.00000 0.9165       0.834881       0.083486
 -23.617   0.2463378906  0.81353     3851.00000 0.9434       0.565936       0.056590
 -38.236   0.2509765625  0.76288     3847.00000 0.9524       0.475670       0.047565
 -39.301   0.2509765625  0.76653     3847.50000 0.9594       0.405770       0.040575
 -32.057   0.2509765625  0.82905     3849.00000 0.9137       0.863275       0.086325
 -29.657   0.2509765625  0.83299     3849.50000 0.9088       0.911942       0.091192
 -27.397   0.2509765625  0.83515     3850.00000 0.9158       0.842468       0.084244
 -23.410   0.2509765625  0.82912     3851.00000 0.9423       0.576556       0.057652
 -38.893   0.2556152344  0.79395     3847.00000 0.9538       0.462281       0.046226
 -39.920   0.2556152344  0.79593     3847.50000 0.9607       0.392938       0.039292
 -32.108   0.2556152344  0.82063     3849.00000 0.9133       0.867022       0.086700
 -29.686   0.2556152344  0.82463     3849.50000 0.9082       0.918502       0.091848
 -23.219   0.2556152344  0.82204     3851.00000 0.9414       0.586357       0.058632
 166.601   0.2602539062  0.77892     2957.50000 0.5257       4.743423       0.474324
 -39.545   0.2602539062  0.80707     3847.00000 0.9552       0.448285       0.044826
 -40.537   0.2602539062  0.80652     3847.50000 0.9621       0.379305       0.037928
 -32.145   0.2602539062  0.81005     3849.00000 0.9129       0.870813       0.087079
 -29.707   0.2602539062  0.81408     3849.50000 0.9075       0.925129       0.092510
 -23.049   0.2602539062  0.81258     3851.00000 0.9405       0.595383       0.059534
 -40.198   0.2648925781  0.79698     3847.00000 0.9566       0.433758       0.043373
 -41.160   0.2648925781  0.79959     3847.50000 0.9635       0.364955       0.036493
 -32.168   0.2648925781  0.79482     3849.00000 0.9125       0.874705       0.087467
 -29.722   0.2648925781  0.79365     3849.50000 0.9068       0.931866       0.093184
 -22.901   0.2648925781  0.83819     3851.00000 0.9396       0.603670       0.060363
 -40.856   0.2695312500  0.79041     3847.00000 0.9581       0.418768       0.041874
 -41.794   0.2695312500  0.78962     3847.50000 0.9650       0.349965       0.034994
 -32.179   0.2695312500  0.78102     3849.00000 0.9121       0.878747       0.087871
 -29.730   0.2695312500  0.77888     3849.50000 0.9061       0.938752       0.093872
 -22.777   0.2695312500  0.82429     3851.00000 0.9389       0.611251       0.061121
 -41.525   0.2741699219  0.78120     3847.00000 0.9597       0.403380       0.040335
 -42.447   0.2741699219  0.77879     3847.50000 0.9666       0.334404       0.033438
 -32.178   0.2741699219  0.76557     3849.00000 0.9117       0.882982       0.088295
 -29.733   0.2741699219  0.76241     3849.50000 0.9054       0.945819       0.094579
 -22.677   0.2741699219  0.80866     3851.00000 0.9382       0.618154       0.061811
 -43.128   0.2788085938  0.76728     3847.50000 0.9682       0.318338       0.031831
 -22.599   0.2788085938  0.79145     3851.00000 0.9376       0.624404       0.062436
 -22.544   0.2834472656  0.82500     3851.00000 0.9370       0.630022       0.062998
 -22.509   0.2880859375  0.80505     3851.00000 0.9365       0.635029       0.063498
 -22.493   0.2927246094  0.78379     3851.00000 0.9361       0.639445       0.063940
  47.697   0.3020019531  0.77692      346.50000 0.9458       0.542198       0.054215
  44.600   0.3020019531  0.82675      347.00000 0.9562       0.437833       0.043782
  41.704   0.3020019531  0.75617      347.50000 0.9632       0.367881       0.036787
  47.259   0.3066406250  0.76678      346.50000 0.9459       0.540810       0.054076
  43.866   0.3066406250  0.81668      347.00000 0.9565       0.435424       0.043541
  46.834   0.3112792969  0.75632      346.50000 0.9460       0.539701       0.053965
  43.146   0.3112792969  0.80636      347.00000 0.9567       0.433158       0.043314
  42.440   0.3159179688  0.79587      347.00000 0.9569       0.431017       0.043100
  41.750   0.3205566406  0.78525      347.00000 0.9571       0.428984       0.042897
  45.641   0.3251953125  0.81932      346.50000 0.9462       0.537865       0.053782
  41.075   0.3251953125  0.80435      347.00000 0.9573       0.427042       0.042703
  36.759   0.3251953125  0.77009      347.50000 0.9644       0.355869       0.035586
  45.272   0.3298339844  0.80677      346.50000 0.9462       0.537693       0.053765
  40.416   0.3298339844  0.79134      347.00000 0.9575       0.425173       0.042516
  35.809   0.3298339844  0.75867      347.50000 0.9647       0.353490       0.035348
  44.920   0.3344726562  0.79411      346.50000 0.9462       0.537715       0.053767
  39.773   0.3344726562  0.77836      347.00000 0.9577       0.423364       0.042336
  39.146   0.3391113281  0.76545      347.00000 0.9578       0.421600       0.042159
  38.534   0.3437500000  0.75267      347.00000 0.9580       0.419866       0.041986
  37.937   0.3483886719  0.75340      347.00000 0.9582       0.418153       0.041815
  32.106   0.3483886719  0.75725      347.50000 0.9656       0.343656       0.034365
 124.741   0.3483886719  0.76387     1436.50000 0.9562       0.437535       0.043753
 125.002   0.3530273438  0.77272     1436.50000 0.9546       0.453733       0.045373
 125.267   0.3576660156  0.77973     1436.50000 0.9530       0.470156       0.047015
 125.535   0.3623046875  0.78539     1436.50000 0.9513       0.486801       0.048680
 125.806   0.3669433594  0.79004     1436.50000 0.9496       0.503664       0.050366
 126.077   0.3715820312  0.79392     1436.50000 0.9479       0.520745       0.052074
 126.349   0.3762207031  0.79718     1436.50000 0.9462       0.538038       0.053803
 126.620   0.3808593750  0.79285     1436.50000 0.9444       0.555543       0.055554
-112.078   0.3854980469  0.80071       87.50000 0.9922       0.077957       0.007796
 -97.151   0.3854980469  0.78331       88.00000 0.9719       0.281120       0.028111
 126.891   0.3854980469  0.79473     1436.50000 0.9427       0.573255       0.057325
-113.199   0.3901367188  0.86409       87.50000 0.9922       0.078312       0.007831
 -97.345   0.3901367188  0.84429       88.00000 0.9714       0.286436       0.028642
-114.311   0.3947753906  0.87063       87.50000 0.9921       0.078699       0.007870
 -97.541   0.3947753906  0.84958       88.00000 0.9708       0.291626       0.029161
-115.409   0.3994140625  0.87103       87.50000 0.9921       0.079117       0.007911
 -97.736   0.3994140625  0.84901       88.00000 0.9703       0.296679       0.029667
-116.493   0.4040527344  0.87018       87.50000 0.9920       0.079559       0.007956
 -97.932   0.4040527344  0.84725       88.00000 0.9698       0.301587       0.030158
-117.559   0.4086914062  0.86866       87.50000 0.9920       0.080023       0.008002
 -98.127   0.4086914062  0.84479       88.00000 0.9694       0.306345       0.030633
-118.606   0.4133300781  0.86654       87.50000 0.9919       0.080506       0.008050
 -98.321   0.4133300781  0.84168       88.00000 0.9689       0.310945       0.031093
  97.373   0.4179687500  0.85148       87.00000 0.9856       0.143763       0.014376
-119.631   0.4179687500  0.85469       87.50000 0.9919       0.081003       0.008100
 -98.514   0.4179687500  0.85841       88.00000 0.9685       0.315382       0.031537
 -30.169   0.4179687500  0.83099     3849.00000 0.8802       1.198162       0.119809
  97.491   0.4226074219  0.84792       87.00000 0.9852       0.148366       0.014837
-120.633   0.4226074219  0.85085       87.50000 0.9918       0.081510       0.008151
 -98.705   0.4226074219  0.85484       88.00000 0.9680       0.319654       0.031964
 107.523   0.4226074219  0.75140      603.50000 0.4046       5.954182       0.595416
 -30.125   0.4226074219  0.84303     3849.00000 0.8785       1.215168       0.121509
  97.599   0.4272460938  0.84377       87.00000 0.9847       0.152848       0.015285
-121.613   0.4272460938  0.84641       87.50000 0.9918       0.082025       0.008202
 -98.894   0.4272460938  0.85066       88.00000 0.9676       0.323754       0.032374
 -30.086   0.4272460938  0.85066     3849.00000 0.8767       1.232640       0.123256
  97.699   0.4318847656  0.83905       87.00000 0.9843       0.157208       0.015721
-122.568   0.4318847656  0.84139       87.50000 0.9917       0.082544       0.008254
 -99.082   0.4318847656  0.84589       88.00000 0.9672       0.327682       0.032767
 -30.050   0.4318847656  0.85533     3849.00000 0.8749       1.250582       0.125051
  97.790   0.4365234375  0.83377       87.00000 0.9839       0.161443       0.016144
-123.499   0.4365234375  0.83581       87.50000 0.9917       0.083063       0.008306
 -99.267   0.4365234375  0.84055       88.00000 0.9669       0.331434       0.033142
 -30.018   0.4365234375  0.85765     3849.00000 0.8731       1.269003       0.126893
  97.875   0.4411621094  0.82796       87.00000 0.9834       0.165551       0.016555
-124.404   0.4411621094  0.82969       87.50000 0.9916       0.083579       0.008358
 -99.450   0.4411621094  0.83466       88.00000 0.9665       0.335010       0.033500
 -29.989   0.4411621094  0.85781     3849.00000 0.8712       1.287906       0.128783
  97.953   0.4458007812  0.82161       87.00000 0.9830       0.169532       0.016953
-125.285   0.4458007812  0.82303       87.50000 0.9916       0.084090       0.008409
 -99.630   0.4458007812  0.82823       88.00000 0.9662       0.338408       0.033840
 -29.964   0.4458007812  0.85577     3849.00000 0.8693       1.307298       0.130722
  98.025   0.4504394531  0.81473       87.00000 0.9827       0.173385       0.017339
-126.142   0.4504394531  0.81585       87.50000 0.9915       0.084593       0.008459
 -99.808   0.4504394531  0.82125       88.00000 0.9658       0.341629       0.034162
 -29.942   0.4504394531  0.85120     3849.00000 0.8673       1.327186       0.132711
  98.092   0.4550781250  0.80730       87.00000 0.9823       0.177111       0.017711
-126.975   0.4550781250  0.80812       87.50000 0.9915       0.085086       0.008508
 -99.984   0.4550781250  0.81372       88.00000 0.9655       0.344673       0.034466
 -29.924   0.4550781250  0.84342     3849.00000 0.8653       1.347574       0.134749
  98.154   0.4597167969  0.79931       87.00000 0.9819       0.180709       0.018071
-127.783   0.4597167969  0.79984       87.50000 0.9914       0.085565       0.008556
-100.157   0.4597167969  0.80561       88.00000 0.9652       0.347539       0.034753
 -29.909   0.4597167969  0.83124     3849.00000 0.8632       1.368471       0.136839
-128.568   0.4643554688  0.77584       87.50000 0.9914       0.086030       0.008602
 -29.897   0.4643554688  0.80701     3849.00000 0.8610       1.389881       0.138980
-129.331   0.4689941406  0.76555       87.50000 0.9914       0.086478       0.008647
2009   2  3 21 28 150
 129.486   0.0561523438  0.79448     2570.00000 0.6623       3.377878       0.337748
 129.858   0.0607910156  0.82134     2570.50000 0.6761       3.239513       0.323924
 -45.920   0.0654296875  0.78669      648.50000 0.8876       1.123824       0.112366
 129.857   0.0654296875  0.79168     2570.50000 0.6857       3.143238       0.314306
 130.121   0.0654296875  0.79236     2571.00000 0.6766       3.234625       0.323444
 -45.728   0.0793457031  0.76476     1898.50000 0.6525       3.475043       0.347466
 -44.524   0.0793457031  0.76712     1899.00000 0.6488       3.511640       0.351162
 -42.420   0.0793457031  0.76892     1899.50000 0.6468       3.532356       0.353230
 -39.463   0.0793457031  0.77017     1900.00000 0.6456       3.544202       0.354406
 -47.818   0.0839843750  0.77591     1898.50000 0.6245       3.755678       0.375528
 -47.028   0.0839843750  0.77844     1899.00000 0.6142       3.857715       0.385772
 -30.634   0.0839843750  0.77672     1901.50000 0.6362       3.638504       0.363816
 -49.399   0.2927246094  0.76861     2165.00000 0.9456       0.544132       0.054411
 -49.284   0.2973632812  0.78385     2165.00000 0.9441       0.558840       0.055882
 -49.170   0.3020019531  0.80852     2165.00000 0.9425       0.574828       0.057481
 -49.056   0.3066406250  0.81544     2165.00000 0.9408       0.592160       0.059214
 -48.944   0.3112792969  0.81966     2165.00000 0.9389       0.610898       0.061088
 -48.833   0.3159179688  0.82236     2165.00000 0.9369       0.631110       0.063109
 -48.725   0.3205566406  0.82417     2165.00000 0.9347       0.652865       0.065285
 -48.620   0.3251953125  0.86543     2165.00000 0.9324       0.676230       0.067621
-158.896   0.3251953125  0.77160     3390.00000 0.9873       0.126828       0.012683
 -48.519   0.3298339844  0.86620     2165.00000 0.9299       0.701277       0.070126
-157.438   0.3298339844  0.77557     3390.00000 0.9870       0.129933       0.012993
 -48.423   0.3344726562  0.86664     2165.00000 0.9272       0.728076       0.072806
-155.999   0.3344726562  0.77714     3390.00000 0.9867       0.132698       0.013269
 -48.332   0.3391113281  0.86681     2165.00000 0.9243       0.756697       0.075668
-154.576   0.3391113281  0.77657     3390.00000 0.9865       0.135155       0.013515
 -48.248   0.3437500000  0.86675     2165.00000 0.9213       0.787209       0.078720
-153.169   0.3437500000  0.77409     3390.00000 0.9863       0.137332       0.013732
  62.653   0.3483886719  0.76053      610.50000 0.9608       0.392405       0.039240
 126.212   0.3483886719  0.77308     1066.50000 0.9452       0.548471       0.054844
 -48.170   0.3483886719  0.98360     2165.00000 0.9180       0.819679       0.081967
-173.620   0.3483886719  0.76228     3389.50000 0.9343       0.657350       0.065735
-151.778   0.3483886719  0.77661     3390.00000 0.9861       0.139254       0.013924
  62.443   0.3530273438  0.76154      610.50000 0.9609       0.391308       0.039130
 125.983   0.3530273438  0.77788     1066.50000 0.9443       0.557272       0.055724
 -48.100   0.3530273438  0.98241     2165.00000 0.9146       0.854177       0.085417
-173.443   0.3530273438  0.75466     3389.50000 0.9332       0.668482       0.066848
-150.402   0.3530273438  0.76896     3390.00000 0.9859       0.140942       0.014093
  62.224   0.3576660156  0.76246      610.50000 0.9610       0.390009       0.039000
 125.768   0.3576660156  0.78121     1066.50000 0.9433       0.566719       0.056669
 -48.037   0.3576660156  0.98097     2165.00000 0.9109       0.890766       0.089076
  61.996   0.3623046875  0.76328      610.50000 0.9611       0.388524       0.038851
 125.568   0.3623046875  0.78330     1066.50000 0.9423       0.576765       0.057673
 -47.983   0.3623046875  0.97911     2165.00000 0.9070       0.929510       0.092950
  61.759   0.3669433594  0.76395      610.50000 0.9613       0.386865       0.038685
 125.381   0.3669433594  0.78433     1066.50000 0.9413       0.587366       0.058733
 -47.937   0.3669433594  0.97655     2165.00000 0.9030       0.970469       0.097046
  61.511   0.3715820312  0.76447      610.50000 0.9615       0.385046       0.038503
 125.208   0.3715820312  0.78443     1066.50000 0.9402       0.598476       0.059844
 -47.899   0.3715820312  0.97278     2165.00000 0.8986       1.013698       0.101369
  61.252   0.3762207031  0.76481      610.50000 0.9617       0.383078       0.038306
 125.049   0.3762207031  0.78370     1066.50000 0.9390       0.610051       0.061001
 -47.870   0.3762207031  0.96690     2165.00000 0.8941       1.059253       0.105925
  63.904   0.3808593750  0.75463      610.00000 0.9603       0.397402       0.039740
  60.981   0.3808593750  0.76543      610.50000 0.9619       0.380972       0.038096
  63.692   0.3808593750  0.75995      611.00000 0.9580       0.419794       0.041977
 124.903   0.3808593750  0.78944     1066.50000 0.9378       0.622044       0.062200
  63.775   0.3854980469  0.75459      610.00000 0.9603       0.396994       0.039699
  60.697   0.3854980469  0.76433      610.50000 0.9621       0.378740       0.037872
  63.521   0.3854980469  0.75828      611.00000 0.9583       0.416960       0.041693
  63.638   0.3901367188  0.75430      610.00000 0.9604       0.396463       0.039646
  60.401   0.3901367188  0.76306      610.50000 0.9624       0.376390       0.037637
  63.344   0.3901367188  0.75652      611.00000 0.9586       0.414035       0.041401
  63.493   0.3947753906  0.75377      610.00000 0.9604       0.395814       0.039581
  60.092   0.3947753906  0.76161      610.50000 0.9626       0.373933       0.037392
  63.159   0.3947753906  0.75467      611.00000 0.9589       0.411030       0.041100
  63.340   0.3994140625  0.75300      610.00000 0.9605       0.395053       0.039505
  59.768   0.3994140625  0.75997      610.50000 0.9629       0.371378       0.037136
  62.967   0.3994140625  0.75271      611.00000 0.9592       0.407954       0.040792
  63.179   0.4040527344  0.75197      610.00000 0.9606       0.394185       0.039418
  59.430   0.4040527344  0.75813      610.50000 0.9631       0.368734       0.036871
  62.768   0.4040527344  0.75065      611.00000 0.9595       0.404816       0.040478
  63.009   0.4086914062  0.75070      610.00000 0.9607       0.393214       0.039321
  59.076   0.4086914062  0.75608      610.50000 0.9634       0.366008       0.036599
  58.708   0.4133300781  0.75382      610.50000 0.9637       0.363209       0.036319
 146.698   0.4365234375  0.75336     2138.00000 0.7826       2.173805       0.217377
 146.518   0.4411621094  0.75786     2138.00000 0.7766       2.233889       0.223386
 146.341   0.4458007812  0.76232     2138.00000 0.7705       2.294921       0.229489
 146.166   0.4504394531  0.76673     2138.00000 0.7643       2.356853       0.235682
 145.995   0.4550781250  0.77109     2138.00000 0.7580       2.419634       0.241961
 145.827   0.4597167969  0.77539     2138.00000 0.7517       2.483211       0.248318
 145.662   0.4643554688  0.76009     2138.00000 0.7453       2.547524       0.254750
 -32.875   0.4643554688  0.75353     2903.00000 0.8066       1.934432       0.193442
 145.501   0.4689941406  0.76462     2138.00000 0.7388       2.612510       0.261249
 -32.918   0.4689941406  0.75936     2903.00000 0.8029       1.970865       0.197085
-150.030   0.4736328125  0.86202      322.50000 0.8134       1.866268       0.186624
 145.343   0.4736328125  0.76910     2138.00000 0.7322       2.678105       0.267808
 -32.957   0.4736328125  0.76497     2903.00000 0.7992       2.007714       0.200770
-149.735   0.4782714844  0.86706      322.50000 0.8059       1.941032       0.194101
 145.188   0.4782714844  0.77350     2138.00000 0.7256       2.744235       0.274421
 -32.992   0.4782714844  0.77034     2903.00000 0.7955       2.044971       0.204496
-149.444   0.4829101562  0.87157      322.50000 0.7983       2.017489       0.201747
 145.036   0.4829101562  0.77783     2138.00000 0.7189       2.810825       0.281080
 -33.023   0.4829101562  0.77546     2903.00000 0.7917       2.082628       0.208261
-149.159   0.4875488281  0.87557      322.50000 0.7905       2.095266       0.209525
 -33.051   0.4875488281  0.78032     2903.00000 0.7879       2.120677       0.212066
-148.878   0.4921875000  0.87907      322.50000 0.7826       2.173914       0.217390
 -48.797   0.4921875000  0.81790     2165.00000 0.7027       2.973092       0.297295
-148.602   0.4968261719  0.88206      322.50000 0.7747       2.252897       0.225289
 -48.855   0.4968261719  0.81874     2165.00000 0.6927       3.073198       0.307304
 152.582   0.4968261719  0.79002     2904.50000 0.8571       1.428636       0.142863
-148.330   0.5014648438  0.88446      322.50000 0.7668       2.331584       0.233158
 -48.913   0.5014648438  0.81880     2165.00000 0.6826       3.173677       0.317350
 152.510   0.5014648438  0.79437     2904.50000 0.8540       1.460308       0.146030
2009   2  4 29 23 150
 118.159   0.2231445312  0.77436      376.50000 0.9104       0.896517       0.089645
 118.412   0.2277832031  0.77087      376.50000 0.9134       0.866273       0.086620
 -70.670   0.2509765625  0.75966     3858.50000 0.9359       0.641449       0.064145
 -71.290   0.2509765625  0.75860     3859.00000 0.9327       0.673185       0.067318
 -70.306   0.2556152344  0.75432     3858.50000 0.9368       0.631701       0.063170
 -70.958   0.2556152344  0.75434     3859.00000 0.9335       0.665419       0.066541
 -12.467   0.2602539062  0.83514     3216.00000 0.9267       0.733537       0.073343
 -18.381   0.2648925781  0.78600     1533.00000 0.8138       1.862146       0.186215
 -12.052   0.2648925781  0.84564     3216.00000 0.9280       0.719642       0.071955
 -17.995   0.2695312500  0.77525     1533.00000 0.8095       1.904932       0.190493
 -11.628   0.2695312500  0.84776     3216.00000 0.9293       0.706840       0.070676
 -17.579   0.2741699219  0.76259     1533.00000 0.8052       1.947587       0.194759
 -15.391   0.2741699219  0.85332     3215.50000 0.9326       0.674095       0.067400
 -11.195   0.2741699219  0.84930     3216.00000 0.9305       0.695069       0.069500
 -14.771   0.2788085938  0.85423     3215.50000 0.9344       0.656339       0.065626
 -10.757   0.2788085938  0.85027     3216.00000 0.9316       0.684271       0.068421
  -9.305   0.2788085938  0.83946     3216.50000 0.9241       0.759367       0.075926
 -16.682   0.2834472656  0.77596     1533.00000 0.7967       2.032517       0.203252
 -14.111   0.2834472656  0.85013     3215.50000 0.9361       0.639404       0.063933
 -10.317   0.2834472656  0.84601     3216.00000 0.9326       0.674384       0.067434
  -9.188   0.2834472656  0.84190     3216.50000 0.9244       0.756116       0.075602
 -16.211   0.2880859375  0.75841     1533.00000 0.7925       2.074744       0.207474
 -13.414   0.2880859375  0.84926     3215.50000 0.9377       0.623266       0.062320
  -9.877   0.2880859375  0.84557     3216.00000 0.9335       0.665350       0.066531
  -9.090   0.2880859375  0.84176     3216.50000 0.9246       0.753759       0.075368
 -12.680   0.2927246094  0.84790     3215.50000 0.9392       0.607908       0.060785
  -9.439   0.2927246094  0.84465     3216.00000 0.9343       0.657109       0.065708
  -9.011   0.2927246094  0.84113     3216.50000 0.9248       0.752220       0.075215
 -11.912   0.2973632812  0.84604     3215.50000 0.9407       0.593312       0.059327
  -9.005   0.2973632812  0.84326     3216.00000 0.9350       0.649598       0.064958
  -8.949   0.2973632812  0.84002     3216.50000 0.9249       0.751422       0.075137
 -11.113   0.3020019531  0.84083     3215.50000 0.9421       0.579457       0.057942
  -8.579   0.3020019531  0.83458     3216.00000 0.9357       0.642759       0.064275
  -8.905   0.3020019531  0.83654     3216.50000 0.9249       0.751292       0.075125
 -10.285   0.3066406250  0.83790     3215.50000 0.9434       0.566326       0.056630
  -8.162   0.3066406250  0.83173     3216.00000 0.9363       0.636528       0.063652
  -8.877   0.3066406250  0.83381     3216.50000 0.9248       0.751754       0.075172
  -9.433   0.3112792969  0.83448     3215.50000 0.9446       0.553897       0.055388
  -7.756   0.3112792969  0.82836     3216.00000 0.9369       0.630847       0.063084
  -8.865   0.3112792969  0.83057     3216.50000 0.9247       0.752742       0.075272
  -8.561   0.3159179688  0.83052     3215.50000 0.9458       0.542149       0.054214
  -8.867   0.3159179688  0.82680     3216.50000 0.9246       0.754185       0.075417
  -8.881   0.3205566406  0.82246     3216.50000 0.9244       0.756021       0.075601
  -8.906   0.3251953125  0.81773     3216.50000 0.9242       0.758188       0.075818
 -71.674   0.3251953125  0.75794     3861.00000 0.8800       1.199765       0.119976
 -73.841   0.3251953125  0.80115     3861.50000 0.8668       1.331727       0.133171
 -74.889   0.3251953125  0.81582     3862.00000 0.8620       1.379775       0.137976
 -18.820   0.3251953125  0.76314     3937.00000 0.9367       0.632644       0.063264
  -8.941   0.3298339844  0.81143     3216.50000 0.9239       0.760629       0.076063
 -71.774   0.3298339844  0.75419     3861.00000 0.8795       1.205105       0.120510
 -73.950   0.3298339844  0.79784     3861.50000 0.8653       1.346803       0.134678
 -74.932   0.3298339844  0.81619     3862.00000 0.8595       1.404614       0.140461
 -17.602   0.3298339844  0.75720     3937.00000 0.9374       0.625721       0.062572
 -74.989   0.3344726562  0.81625     3862.00000 0.8571       1.429296       0.142929
 -16.430   0.3344726562  0.75034     3937.00000 0.9380       0.620385       0.062038
 -75.060   0.3391113281  0.81594     3862.00000 0.8546       1.453756       0.145376
 -75.146   0.3437500000  0.81518     3862.00000 0.8522       1.477930       0.147793
 -75.245   0.3483886719  0.84609     3862.00000 0.8498       1.501756       0.150175
 -75.358   0.3530273438  0.84195     3862.00000 0.8475       1.525169       0.152516
 -75.483   0.3576660156  0.83768     3862.00000 0.8452       1.548113       0.154809
 -75.620   0.3623046875  0.83330     3862.00000 0.8430       1.570529       0.157049
 -75.770   0.3669433594  0.82880     3862.00000 0.8408       1.592362       0.159231
 -75.932   0.3715820312  0.82418     3862.00000 0.8387       1.613561       0.161348
  75.355   0.4179687500  0.77012      167.50000 0.9957       0.042519       0.004251
  76.847   0.4597167969  0.75005      765.00000 0.9350       0.649559       0.064953
 119.335   0.4643554688  0.89101      370.50000 0.4528       5.472054       0.547201
 124.199   0.4643554688  0.76758      380.50000 0.8752       1.247673       0.124767
 119.283   0.4689941406  0.89323      370.50000 0.4357       5.643509       0.564344
 124.276   0.4689941406  0.76457      380.50000 0.8720       1.280379       0.128038
 119.230   0.4736328125  0.89528      370.50000 0.4181       5.819479       0.581938
 124.350   0.4736328125  0.76143      380.50000 0.8686       1.313639       0.131364
 119.179   0.4782714844  0.89716      370.50000 0.4000       5.999954       0.599982
 124.421   0.4782714844  0.75812      380.50000 0.8653       1.347451       0.134745
-161.656   0.4782714844  0.79415     2977.00000 0.7505       2.494848       0.249479
 119.128   0.4829101562  0.89891      370.50000 0.3815       6.184935       0.618476
 124.489   0.4829101562  0.75459      380.50000 0.8618       1.381813       0.138181
-161.985   0.4829101562  0.78349     2977.00000 0.7427       2.572838       0.257276
 119.078   0.4875488281  0.90053      370.50000 0.3626       6.374414       0.637418
 124.555   0.4875488281  0.75077      380.50000 0.8583       1.416724       0.141672
-162.313   0.4875488281  0.76516     2977.00000 0.7348       2.651692       0.265158
 -40.466   0.4921875000  0.78545      250.00000 0.2813       7.187243       0.718723
 -40.527   0.4968261719  0.78183      250.00000 0.2916       7.084088       0.708408
 -40.585   0.5014648438  0.77752      250.00000 0.3018       6.982167       0.698216
2009   2  5 37 18 150
 136.336   0.0515136719  0.76394     2219.00000 0.6915       3.085287       0.308529
 139.237   0.0561523438  0.75502     2218.00000 0.7161       2.839488       0.283935
 139.346   0.0561523438  0.75519     2218.50000 0.7163       2.837486       0.283748
 139.264   0.0561523438  0.75611     2219.00000 0.7155       2.845445       0.284537
 130.470   0.0886230469  0.77621     2237.50000 0.8485       1.514917       0.151482
 129.551   0.0886230469  0.77239     2238.00000 0.8214       1.786052       0.178594
 128.809   0.0886230469  0.76889     2238.50000 0.7797       2.203169       0.220304
 128.222   0.0886230469  0.76600     2239.00000 0.7172       2.828491       0.282834
 129.495   0.0932617188  0.76305     2237.50000 0.8672       1.327710       0.132764
 -28.050   0.2045898438  0.75021     3527.00000 0.9269       0.731379       0.073138
 -31.442   0.2045898438  0.75139     3527.50000 0.9392       0.607947       0.060795
 -34.820   0.2045898438  0.75281     3528.00000 0.9531       0.468543       0.046854
 -29.304   0.2092285156  0.76236     3527.00000 0.9262       0.737719       0.073772
 -33.116   0.2092285156  0.76362     3527.50000 0.9389       0.610885       0.061089
 -37.246   0.2092285156  0.76480     3528.00000 0.9531       0.468796       0.046879
 -44.782   0.2138671875  0.78208     3209.00000 0.9528       0.471602       0.047158
 -30.457   0.2138671875  0.75941     3527.00000 0.9255       0.744503       0.074450
 -34.728   0.2138671875  0.75983     3527.50000 0.9386       0.614097       0.061410
 -39.674   0.2138671875  0.76189     3528.00000 0.9531       0.469166       0.046917
 -42.322   0.2185058594  0.77302     3209.00000 0.9524       0.476393       0.047638
 -31.516   0.2185058594  0.75719     3527.00000 0.9248       0.751696       0.075169
 -36.286   0.2185058594  0.75770     3527.50000 0.9382       0.617606       0.061761
 -40.481   0.2231445312  0.75174     3209.00000 0.9520       0.479796       0.047978
 159.007   0.2370605469  0.75500     2370.00000 0.8856       1.143604       0.114353
 159.151   0.2416992188  0.75608     2370.00000 0.8891       1.109371       0.110930
 159.394   0.2463378906  0.75492     2370.00000 0.8923       1.076866       0.107681
 139.282   0.2509765625  0.82139     2368.50000 0.8382       1.618118       0.161789
 159.733   0.2509765625  0.78564     2370.00000 0.8954       1.045885       0.104583
 138.962   0.2556152344  0.81397     2368.50000 0.8399       1.601163       0.160096
 160.168   0.2556152344  0.78096     2370.00000 0.8984       1.016281       0.101623
 138.666   0.2602539062  0.80493     2368.50000 0.8414       1.585814       0.158563
 160.699   0.2602539062  0.77488     2370.00000 0.9012       0.987945       0.098790
 138.393   0.2648925781  0.78549     2368.50000 0.8428       1.571925       0.157176
 161.325   0.2648925781  0.78072     2370.00000 0.9039       0.960801       0.096076
 164.809   0.2648925781  0.75570     2370.50000 0.9028       0.971735       0.097163
 138.139   0.2695312500  0.77333     2368.50000 0.8441       1.559368       0.155923
 162.047   0.2695312500  0.77231     2370.00000 0.9065       0.934794       0.093476
 137.904   0.2741699219  0.76003     2368.50000 0.8452       1.548036       0.154791
 162.864   0.2741699219  0.76287     2370.00000 0.9090       0.909889       0.090986
 143.134   0.2788085938  0.75027     2369.00000 0.8754       1.246500       0.124634
 163.777   0.2788085938  0.75248     2370.00000 0.9114       0.886063       0.088603
 -42.275   0.2834472656  0.76372     3209.00000 0.9574       0.425841       0.042584
 -77.185   0.3947753906  0.75118     1965.50000 0.6342       3.657661       0.365755
 -21.328   0.3994140625  0.75201     3394.00000 0.7838       2.162246       0.216212
 -21.493   0.4040527344  0.77613     3394.00000 0.7793       2.206934       0.220680
 156.890   0.4040527344  0.75252     3769.50000 0.9554       0.446514       0.044649
 -21.650   0.4086914062  0.79837     3394.00000 0.7748       2.251899       0.225175
 156.716   0.4086914062  0.75661     3769.50000 0.9533       0.467309       0.046728
 -21.800   0.4133300781  0.81763     3394.00000 0.7703       2.297119       0.229695
 156.574   0.4133300781  0.76079     3769.50000 0.9511       0.488580       0.048855
 -21.942   0.4179687500  0.86640     3394.00000 0.7658       2.342571       0.234239
 -25.269   0.4179687500  0.82812     3832.50000 0.9363       0.637093       0.063706
 -22.078   0.4226074219  0.87222     3394.00000 0.7612       2.388230       0.238803
 156.367   0.4226074219  0.75068     3769.50000 0.9468       0.532510       0.053248
 -25.237   0.4226074219  0.83463     3832.50000 0.9356       0.643640       0.064361
 -22.208   0.4272460938  0.87751     3394.00000 0.7566       2.434072       0.243385
 156.295   0.4272460938  0.75415     3769.50000 0.9445       0.555153       0.055513
 -25.203   0.4272460938  0.84054     3832.50000 0.9350       0.650265       0.065023
 156.241   0.4318847656  0.75663     3769.50000 0.9422       0.578237       0.057821
 -25.167   0.4318847656  0.84591     3832.50000 0.9343       0.656965       0.065693
 156.203   0.4365234375  0.75772     3769.50000 0.9398       0.601754       0.060173
 -25.128   0.4365234375  0.85083     3832.50000 0.9336       0.663737       0.066371
 156.178   0.4411621094  0.75702     3769.50000 0.9374       0.625696       0.062567
 -25.087   0.4411621094  0.85534     3832.50000 0.9329       0.670575       0.067054
 -35.282   0.4411621094  0.75092     3833.00000 0.9764       0.236001       0.023600
 156.165   0.4458007812  0.75421     3769.50000 0.9350       0.650055       0.065003
 164.036   0.4458007812  0.75535     3774.00000 0.7712       2.287677       0.228767
 -25.044   0.4458007812  0.85950     3832.50000 0.9323       0.677476       0.067745
 163.864   0.4504394531  0.76598     3774.00000 0.7663       2.336733       0.233673
 -24.999   0.4504394531  0.86335     3832.50000 0.9316       0.684437       0.068441
 163.695   0.4550781250  0.77636     3774.00000 0.7614       2.385982       0.238598
 -24.952   0.4550781250  0.86692     3832.50000 0.9309       0.691453       0.069143
 173.060   0.4550781250  0.75269     3833.50000 0.9720       0.279959       0.027995
 163.529   0.4597167969  0.78644     3774.00000 0.7565       2.435396       0.243539
 -24.903   0.4597167969  0.87024     3832.50000 0.9302       0.698521       0.069849
 172.523   0.4597167969  0.75652     3833.50000 0.9708       0.292057       0.029205
 -70.638   0.4643554688  0.78278      719.50000 0.8865       1.135204       0.113511
 156.199   0.4643554688  0.81267     3769.50000 0.9249       0.751506       0.075148
 163.366   0.4643554688  0.77448     3774.00000 0.7515       2.484950       0.248494
 153.801   0.4643554688  0.78434     3829.50000 0.9591       0.409100       0.040904
 -24.853   0.4643554688  0.87753     3832.50000 0.9294       0.705637       0.070561
 172.027   0.4643554688  0.81527     3833.50000 0.9696       0.304262       0.030426
 -70.818   0.4689941406  0.78901      719.50000 0.8837       1.163155       0.116305
 156.223   0.4689941406  0.82016     3769.50000 0.9222       0.777832       0.077780
 163.207   0.4689941406  0.78470     3774.00000 0.7465       2.534615       0.253461
 154.024   0.4689941406  0.78822     3829.50000 0.9580       0.419898       0.041984
 171.566   0.4689941406  0.81790     3833.50000 0.9683       0.316566       0.031656
 -70.992   0.4736328125  0.79486      719.50000 0.8808       1.191741       0.119163
 156.252   0.4736328125  0.82727     3769.50000 0.9196       0.804529       0.080450
 163.051   0.4736328125  0.79448     3774.00000 0.7416       2.584362       0.258435
 171.137   0.4736328125  0.82035     3833.50000 0.9671       0.328958       0.032895
 -71.161   0.4782714844  0.80037      719.50000 0.8779       1.220956       0.122084
 156.285   0.4782714844  0.83400     3769.50000 0.9168       0.831588       0.083156
 162.898   0.4782714844  0.80381     3774.00000 0.7366       2.634161       0.263415
 170.738   0.4782714844  0.82264     3833.50000 0.9659       0.341431       0.034142
 -71.324   0.4829101562  0.80557      719.50000 0.8749       1.250795       0.125068
 156.322   0.4829101562  0.84034     3769.50000 0.9141       0.858999       0.085897
 162.748   0.4829101562  0.81266     3774.00000 0.7316       2.683984       0.268397
 170.364   0.4829101562  0.82479     3833.50000 0.9646       0.353974       0.035397
 -71.482   0.4875488281  0.81050      719.50000 0.8719       1.281254       0.128113
 156.361   0.4875488281  0.84630     3769.50000 0.9113       0.886756       0.088673
 162.602   0.4875488281  0.82102     3774.00000 0.7266       2.733796       0.273378
 170.015   0.4875488281  0.82682     3833.50000 0.9633       0.366581       0.036657
 -71.635   0.4921875000  0.81518      719.50000 0.8688       1.312328       0.131220
  98.759   0.4921875000  0.75089      721.00000 0.8324       1.676090       0.167604
 156.402   0.4921875000  0.85188     3769.50000 0.9085       0.914851       0.091482
 162.458   0.4921875000  0.82888     3774.00000 0.7216       2.783568       0.278355
 169.687   0.4921875000  0.82872     3833.50000 0.9621       0.379243       0.037923
 -71.783   0.4968261719  0.81963      719.50000 0.8656       1.344010       0.134388
  98.829   0.4968261719  0.75832      721.00000 0.8281       1.718971       0.171892
 156.445   0.4968261719  0.85708     3769.50000 0.9057       0.943273       0.094324
 169.379   0.4968261719  0.83053     3833.50000 0.9608       0.391950       0.039194
 -44.250   0.5014648438  0.75019       36.50000 0.8966       1.033692       0.103354
 -71.927   0.5014648438  0.82388      719.50000 0.8624       1.376296       0.137616
  98.897   0.5014648438  0.76542      721.00000 0.8238       1.762543       0.176249
 156.489   0.5014648438  0.86190     3769.50000 0.9028       0.972016       0.097199
 169.090   0.5014648438  0.83223     3833.50000 0.9595       0.404696       0.040468
2009   2  6 45 13 150
 -15.006   0.1628417969  0.77224     1295.50000 0.9505       0.495192       0.049516
  86.745   0.2370605469  0.76724     3063.50000 0.9200       0.799945       0.079993
  87.978   0.2463378906  0.76593     3063.50000 0.9215       0.785127       0.078512
  85.669   0.2509765625  0.75862     3063.00000 0.9272       0.728064       0.072806
  88.702   0.2509765625  0.76733     3063.50000 0.9222       0.778182       0.077818
  89.538   0.2509765625  0.76901     3064.00000 0.9159       0.841182       0.084115
  85.849   0.2556152344  0.75601     3063.00000 0.9274       0.725971       0.072596
  89.491   0.2556152344  0.76293     3063.50000 0.9228       0.771513       0.077151
  90.548   0.2556152344  0.76329     3064.00000 0.9169       0.831356       0.083133
  86.075   0.2602539062  0.75079     3063.00000 0.9276       0.723857       0.072384
  90.340   0.2602539062  0.75595     3063.50000 0.9235       0.765107       0.076510
  91.603   0.2602539062  0.75524     3064.00000 0.9178       0.822170       0.082215
 -53.508   0.4133300781  0.77768     1029.50000 0.8046       1.954584       0.195448
 136.196   0.4133300781  0.75209     1723.50000 0.8681       1.319584       0.131943
 -53.336   0.4272460938  0.78771     1029.50000 0.7922       2.077934       0.207783
 -53.273   0.4318847656  0.83731     1029.50000 0.7880       2.120040       0.211994
  33.508   0.4318847656  0.77651     1822.00000 0.7708       2.292192       0.229189
 -53.207   0.4365234375  0.86810     1029.50000 0.7837       2.162621       0.216252
  33.473   0.4365234375  0.77747     1822.00000 0.7728       2.272571       0.227229
 -53.139   0.4411621094  0.88687     1029.50000 0.7794       2.205666       0.220556
  33.444   0.4411621094  0.77814     1822.00000 0.7746       2.253814       0.225356
 -53.069   0.4458007812  0.89932     1029.50000 0.7751       2.249166       0.224906
  33.420   0.4458007812  0.77852     1822.00000 0.7764       2.235861       0.223563
 -42.557   0.4458007812  0.75511     2152.00000 0.4580       5.420193       0.542018
 -52.996   0.4504394531  0.90832     1029.50000 0.7707       2.293111       0.229300
  33.400   0.4504394531  0.77862     1822.00000 0.7782       2.218654       0.221845
 -42.581   0.4504394531  0.75642     2152.00000 0.4518       5.481983       0.548195
 -52.921   0.4550781250  0.91530     1029.50000 0.7663       2.337493       0.233739
 -50.989   0.4550781250  0.75353     1726.50000 0.7803       2.196801       0.219680
  33.385   0.4550781250  0.77845     1822.00000 0.7798       2.202142       0.220196
 -42.606   0.4550781250  0.75688     2152.00000 0.4460       5.540073       0.554002
 -52.844   0.4597167969  0.92096     1029.50000 0.7618       2.382304       0.238220
 -50.930   0.4597167969  0.75810     1726.50000 0.7761       2.238689       0.223869
  33.375   0.4597167969  0.77800     1822.00000 0.7814       2.186276       0.218611
 -52.766   0.4643554688  0.91808     1029.50000 0.7573       2.427539       0.242743
  33.369   0.4643554688  0.78441     1822.00000 0.7829       2.171010       0.217087
 -52.686   0.4689941406  0.92257     1029.50000 0.7527       2.473189       0.247308
  33.368   0.4689941406  0.78072     1822.00000 0.7844       2.156302       0.215618
 -52.604   0.4736328125  0.92648     1029.50000 0.7481       2.519248       0.251914
  33.371   0.4736328125  0.77682     1822.00000 0.7858       2.142113       0.214201
 -52.522   0.4782714844  0.92992     1029.50000 0.7434       2.565713       0.256560
  33.377   0.4782714844  0.77272     1822.00000 0.7872       2.128406       0.212831
 -52.438   0.4829101562  0.93297     1029.50000 0.7388       2.612574       0.261246
 -50.654   0.4829101562  0.75227     1726.50000 0.7541       2.459471       0.245946
