 108.988   0.1164550781  0.86002      101.50000 0.7783       2.217510       0.221724
  85.254   0.1164550781  0.78585      612.00000 0.8340       1.660045       0.165985
  86.469   0.1164550781  0.81835      612.50000 0.8375       1.624597       0.162453
  80.448   0.1164550781  0.86181      619.50000 0.8285       1.715375       0.171537
  81.104   0.1164550781  0.85562      620.00000 0.8277       1.722900       0.172289
  75.181   0.1164550781  0.75521      626.50000 0.8814       1.186251       0.118622
  75.416   0.1164550781  0.76702      627.00000 0.8748       1.251646       0.125157
  76.102   0.1164550781  0.77407      627.50000 0.8708       1.292055       0.129192
  82.279   0.1164550781  0.77875      631.50000 0.9229       0.770926       0.077092
  80.746   0.1164550781  0.76669      632.00000 0.9244       0.755597       0.075559
 106.802   0.1164550781  0.76621     1212.50000 0.7825       2.175468       0.217528
 106.279   0.1164550781  0.77130     2269.50000 0.7503       2.497384       0.249702
 103.876   0.1164550781  0.76516     2270.00000 0.7656       2.344563       0.234441
 101.064   0.1164550781  0.75735     2270.50000 0.7765       2.235270       0.223526
  98.220   0.1164550781  0.75204     2271.00000 0.7828       2.171623       0.217155
  81.676   0.1164550781  0.86138     2558.50000 0.7324       2.676108       0.267610
 133.075   0.1210937500  0.89299       98.00000 0.8853       1.147016       0.114700
 109.332   0.1210937500  0.89348      101.50000 0.7796       2.204517       0.220426
 126.468   0.1210937500  0.88817      104.50000 0.8808       1.192488       0.119233
  98.584   0.1210937500  0.76298      364.50000 0.7438       2.561638       0.256153
 100.376   0.1210937500  0.75460      365.00000 0.7842       2.157592       0.215758
 113.839   0.1210937500  0.84204      607.50000 0.8523       1.476669       0.147662
  86.190   0.1210937500  0.88620      612.00000 0.8375       1.625153       0.162498
  87.343   0.1210937500  0.90019      612.50000 0.8407       1.593348       0.159329
  89.038   0.1210937500  0.90216      613.00000 0.8460       1.539693       0.153968
  81.278   0.1210937500  0.87660      619.00000 0.8366       1.633688       0.163366
  81.384   0.1210937500  0.87339      619.50000 0.8326       1.673675       0.167367
  81.947   0.1210937500  0.86971      620.00000 0.8321       1.679342       0.167933
  82.808   0.1210937500  0.86408      620.50000 0.8348       1.651760       0.165172
 107.374   0.1210937500  0.83676     1212.50000 0.7618       2.381961       0.238191
 150.192   0.1210937500  0.80402     2181.00000 0.4984       5.015779       0.501552
 109.666   0.1210937500  0.77848     2269.50000 0.7558       2.442182       0.244199
 107.428   0.1210937500  0.76984     2270.00000 0.7692       2.307832       0.230778
 104.719   0.1210937500  0.76084     2270.50000 0.7792       2.208351       0.220835
 101.879   0.1210937500  0.75190     2271.00000 0.7851       2.149322       0.214916
  83.297   0.1210937500  0.85815     2558.50000 0.7266       2.734455       0.273436
  85.430   0.1210937500  0.85756     2559.00000 0.7130       2.870064       0.287006
 119.646   0.1210937500  0.81719     3721.00000 0.8052       1.947862       0.194774
 130.545   0.1257324219  0.91005       98.00000 0.8752       1.248023       0.124795
 126.645   0.1257324219  0.91168       98.50000 0.8699       1.301001       0.130099
 123.339   0.1257324219  0.90613      104.50000 0.8717       1.282674       0.128254
  98.679   0.1257324219  0.80329      364.50000 0.7505       2.495455       0.249543
 100.290   0.1257324219  0.79361      365.00000 0.7851       2.149477       0.214948
  86.112   0.1257324219  0.76493      599.00000 0.8031       1.969012       0.196896
  88.482   0.1257324219  0.76405      599.50000 0.8268       1.731653       0.173161
 107.289   0.1257324219  0.87657      607.00000 0.8425       1.574573       0.157452
 110.862   0.1257324219  0.87689      607.50000 0.8552       1.447917       0.144782
  87.024   0.1257324219  0.91378      612.00000 0.8409       1.591293       0.159114
  88.137   0.1257324219  0.91529      612.50000 0.8438       1.562301       0.156225
  89.775   0.1257324219  0.91465      613.00000 0.8487       1.513506       0.151350
  82.115   0.1257324219  0.88187      619.00000 0.8385       1.614557       0.161453
  82.170   0.1257324219  0.87825      619.50000 0.8351       1.649098       0.164910
  82.669   0.1257324219  0.87410      620.00000 0.8348       1.652237       0.165222
  83.460   0.1257324219  0.86833      620.50000 0.8375       1.624744       0.162470
 109.467   0.1257324219  0.87123     1212.00000 0.7263       2.737460       0.273745
 145.407   0.1257324219  0.84396     2181.00000 0.5980       4.019786       0.401978
 112.919   0.1257324219  0.76043     2269.50000 0.7598       2.402525       0.240244
 110.742   0.1257324219  0.75313     2270.00000 0.7722       2.277999       0.227799
  86.618   0.1257324219  0.84442     2559.00000 0.7128       2.871890       0.287174
  94.083   0.1257324219  0.85487     2560.50000 0.6474       3.526563       0.352639
  96.470   0.1257324219  0.85971     2561.00000 0.6207       3.793713       0.379327
 125.849   0.1303710938  0.91797       98.50000 0.8629       1.370565       0.137056
 120.869   0.1303710938  0.91268      104.50000 0.8639       1.360917       0.136080
  98.554   0.1303710938  0.83147      364.50000 0.7547       2.452762       0.245276
  99.984   0.1303710938  0.82255      365.00000 0.7848       2.152081       0.215207
  86.876   0.1303710938  0.79949      599.00000 0.8104       1.895701       0.189567
  89.112   0.1303710938  0.79875      599.50000 0.8317       1.683048       0.168302
  91.228   0.1303710938  0.79897      600.00000 0.8574       1.426547       0.142648
  92.116   0.1303710938  0.79996      600.50000 0.8793       1.206709       0.120654
  99.872   0.1303710938  0.89129      606.50000 0.8316       1.684311       0.168411
 105.323   0.1303710938  0.89316      607.00000 0.8455       1.544849       0.154484
 108.782   0.1303710938  0.89281      607.50000 0.8573       1.427450       0.142730
  87.804   0.1303710938  0.92495      612.00000 0.8443       1.557156       0.155702
  88.889   0.1303710938  0.92407      612.50000 0.8470       1.530202       0.153016
  90.483   0.1303710938  0.92292      613.00000 0.8515       1.485444       0.148544
  82.804   0.1303710938  0.88433      619.00000 0.8392       1.608245       0.160823
  82.832   0.1303710938  0.88015      619.50000 0.8362       1.637541       0.163754
  83.290   0.1303710938  0.87546      620.00000 0.8363       1.637341       0.163732
  84.032   0.1303710938  0.86955      620.50000 0.8392       1.608394       0.160835
  84.927   0.1303710938  0.86124      621.00000 0.8446       1.553700       0.155363
 109.048   0.1303710938  0.89139     1212.00000 0.7109       2.891613       0.289147
  92.573   0.1303710938  0.83871     2560.00000 0.6810       3.190602       0.319048
  95.032   0.1303710938  0.84485     2560.50000 0.6585       3.414591       0.341457
  93.579   0.1303710938  0.85939     2568.50000 0.5228       4.772726       0.477244
 106.602   0.1350097656  0.76632       31.00000 0.8570       1.429656       0.142963
 108.957   0.1350097656  0.75345       31.50000 0.8561       1.439121       0.143905
 125.363   0.1350097656  0.91721       98.50000 0.8570       1.429988       0.142995
 118.779   0.1350097656  0.91362      104.50000 0.8569       1.431402       0.143129
 121.979   0.1350097656  0.88910      111.00000 0.8443       1.556856       0.155679
  97.884   0.1350097656  0.84785      364.00000 0.7325       2.675321       0.267532
  98.319   0.1350097656  0.84863      364.50000 0.7578       2.422138       0.242211
  99.573   0.1350097656  0.84257      365.00000 0.7840       2.159719       0.215968
  87.580   0.1350097656  0.80918      599.00000 0.8158       1.842154       0.184214
  89.690   0.1350097656  0.80930      599.50000 0.8353       1.647010       0.164700
  91.674   0.1350097656  0.81019      600.00000 0.8586       1.414510       0.141447
  92.479   0.1350097656  0.81192      600.50000 0.8784       1.215828       0.121570
  93.143   0.1350097656  0.89647      606.00000 0.8207       1.793213       0.179298
  98.675   0.1350097656  0.89822      606.50000 0.8341       1.659245       0.165917
 103.868   0.1350097656  0.89915      607.00000 0.8475       1.524888       0.152488
  88.567   0.1350097656  0.93137      612.00000 0.8478       1.521794       0.152168
  89.624   0.1350097656  0.92985      612.50000 0.8504       1.496075       0.149605
  91.179   0.1350097656  0.92836      613.00000 0.8545       1.454565       0.145456
  83.377   0.1350097656  0.88567      619.00000 0.8388       1.612470       0.161246
  83.395   0.1350097656  0.88068      619.50000 0.8364       1.636161       0.163616
  83.829   0.1350097656  0.87523      620.00000 0.8368       1.631582       0.163156
  84.541   0.1350097656  0.86893      620.50000 0.8400       1.599694       0.159964
  85.399   0.1350097656  0.86131      621.00000 0.8457       1.543500       0.154342
  86.762   0.1350097656  0.75199      623.50000 0.8895       1.104814       0.110479
 124.804   0.1350097656  0.82638     3717.50000 0.4954       5.045998       0.504590
 107.400   0.1396484375  0.80017       31.00000 0.8620       1.380001       0.138000
 109.552   0.1396484375  0.79699       31.50000 0.8609       1.390544       0.139051
 112.222   0.1396484375  0.78881       32.00000 0.8613       1.387036       0.138697
 115.196   0.1396484375  0.77850       32.50000 0.8622       1.378195       0.137811
 118.131   0.1396484375  0.77090       33.00000 0.8627       1.373347       0.137328
 120.590   0.1396484375  0.76957       33.50000 0.8619       1.380541       0.138051
 122.117   0.1396484375  0.77452       34.00000 0.8594       1.405908       0.140591
 122.348   0.1396484375  0.78218       34.50000 0.8546       1.454388       0.145434
 125.105   0.1396484375  0.91217       98.50000 0.8520       1.480104       0.148001
 121.215   0.1396484375  0.91213       99.00000 0.8429       1.570925       0.157091
 116.923   0.1396484375  0.91213      104.50000 0.8503       1.497367       0.149726
 122.875   0.1396484375  0.88973      111.00000 0.8481       1.519505       0.151949
 127.629   0.1396484375  0.88403      111.50000 0.8602       1.397588       0.139758
  97.653   0.1396484375  0.85323      364.00000 0.7378       2.622510       0.262248
  98.049   0.1396484375  0.85574      364.50000 0.7605       2.395105       0.239500
  99.139   0.1396484375  0.85304      365.00000 0.7833       2.166750       0.216665
  88.241   0.1396484375  0.80500      599.00000 0.8199       1.800746       0.180074
  90.234   0.1396484375  0.80639      599.50000 0.8381       1.618511       0.161851
  92.089   0.1396484375  0.80838      600.00000 0.8597       1.403454       0.140344
  92.779   0.1396484375  0.81123      600.50000 0.8780       1.220536       0.122046
  92.338   0.1396484375  0.89693      606.00000 0.8223       1.777045       0.177693
  97.676   0.1396484375  0.89782      606.50000 0.8356       1.644260       0.164424
 102.760   0.1396484375  0.89777      607.00000 0.8488       1.512389       0.151236
  89.336   0.1396484375  0.93524      612.00000 0.8515       1.484619       0.148452
  90.360   0.1396484375  0.93340      612.50000 0.8541       1.459247       0.145923
  91.875   0.1396484375  0.93154      613.00000 0.8580       1.420137       0.142014
  83.860   0.1396484375  0.88685      619.00000 0.8374       1.625575       0.162556
  83.882   0.1396484375  0.88073      619.50000 0.8357       1.642741       0.164274
  84.305   0.1396484375  0.87421      620.00000 0.8368       1.632476       0.163245
  84.998   0.1396484375  0.86724      620.50000 0.8404       1.596177       0.159612
  85.834   0.1396484375  0.85996      621.00000 0.8463       1.536992       0.153691
  86.682   0.1396484375  0.85260      621.50000 0.8541       1.459354       0.145926
  87.399   0.1396484375  0.84475      622.00000 0.8631       1.368929       0.136884
  87.766   0.1396484375  0.80526      623.00000 0.8821       1.179171       0.117913
  87.082   0.1396484375  0.77458      623.50000 0.8902       1.097664       0.109764
  85.722   0.1396484375  0.75232      624.00000 0.8963       1.037493       0.103748
 109.882   0.1396484375  0.80605      822.50000 0.6963       3.036847       0.303682
 125.630   0.1396484375  0.81865     3717.50000 0.4866       5.134863       0.513433
 108.031   0.1396484375  0.75031     3869.50000 0.8185       1.815264       0.181521
 108.142   0.1442871094  0.82075       31.00000 0.8665       1.335009       0.133501
 110.116   0.1442871094  0.81876       31.50000 0.8654       1.346121       0.134611
 112.585   0.1442871094  0.81658       32.00000 0.8656       1.344282       0.134424
 115.333   0.1442871094  0.81413       32.50000 0.8663       1.337398       0.133734
 118.023   0.1442871094  0.81306       33.00000 0.8666       1.333988       0.133394
 120.229   0.1442871094  0.81476       33.50000 0.8659       1.341430       0.134141
 121.518   0.1442871094  0.81888       34.00000 0.8635       1.365324       0.136532
 125.022   0.1442871094  0.90501       98.50000 0.8478       1.521773       0.152160
 121.328   0.1442871094  0.90380       99.00000 0.8398       1.602374       0.160233
 115.219   0.1442871094  0.90925      104.50000 0.8439       1.561247       0.156113
 123.775   0.1442871094  0.88496      111.00000 0.8522       1.477529       0.147753
 128.717   0.1442871094  0.88009      111.50000 0.8638       1.362110       0.136211
  97.432   0.1442871094  0.85144      364.00000 0.7428       2.571795       0.257168
  97.794   0.1442871094  0.85347      364.50000 0.7635       2.365665       0.236546
  98.740   0.1442871094  0.85260      365.00000 0.7832       2.168136       0.216794
  88.875   0.1442871094  0.79148      599.00000 0.8233       1.766997       0.176700
  90.762   0.1442871094  0.79446      599.50000 0.8405       1.594682       0.159468
  92.495   0.1442871094  0.79816      600.00000 0.8607       1.392788       0.139279
  93.052   0.1442871094  0.80304      600.50000 0.8778       1.222061       0.122202
  91.541   0.1442871094  0.89141      606.00000 0.8229       1.770611       0.177057
  96.801   0.1442871094  0.89131      606.50000 0.8363       1.637213       0.163721
 101.896   0.1442871094  0.89028      607.00000 0.8494       1.505964       0.150588
  90.131   0.1442871094  0.93693      612.00000 0.8555       1.445375       0.144530
  91.109   0.1442871094  0.93486      612.50000 0.8581       1.419361       0.141935
  92.577   0.1442871094  0.93263      613.00000 0.8618       1.381681       0.138168
  84.313   0.1442871094  0.88084      619.50000 0.8345       1.655307       0.165531
  84.735   0.1442871094  0.87295      620.00000 0.8362       1.637809       0.163778
  85.417   0.1442871094  0.86515      620.50000 0.8404       1.595693       0.159563
  86.239   0.1442871094  0.85820      621.00000 0.8468       1.532308       0.153222
  87.070   0.1442871094  0.85303      621.50000 0.8548       1.451989       0.145189
  87.768   0.1442871094  0.84995      622.00000 0.8640       1.360110       0.136002
  88.169   0.1442871094  0.84685      622.50000 0.8737       1.263320       0.126325
  88.098   0.1442871094  0.83645      623.00000 0.8830       1.169631       0.116958
  87.407   0.1442871094  0.80554      623.50000 0.8912       1.088071       0.108804
  86.054   0.1442871094  0.77141      624.00000 0.8972       1.027572       0.102755
 108.539   0.1442871094  0.81964      822.00000 0.6920       3.080502       0.308022
 110.332   0.1442871094  0.81888      822.50000 0.6882       3.118253       0.311823
 108.845   0.1489257812  0.83761       31.00000 0.8706       1.293972       0.129397
 110.659   0.1489257812  0.83252       31.50000 0.8695       1.305452       0.130545
 112.953   0.1489257812  0.83025       32.00000 0.8695       1.304845       0.130482
 115.515   0.1489257812  0.83294       32.50000 0.8701       1.299370       0.129933
 121.518   0.1489257812  0.89460       99.00000 0.8373       1.627396       0.162730
 113.619   0.1489257812  0.90492      104.50000 0.8375       1.624825       0.162470
 124.691   0.1489257812  0.87680      111.00000 0.8569       1.430863       0.143086
 129.877   0.1489257812  0.87238      111.50000 0.8679       1.320581       0.132056
  97.593   0.1489257812  0.83999      363.50000 0.7339       2.660819       0.266074
  89.495   0.1489257812  0.77074      599.00000 0.8262       1.738249       0.173824
  91.292   0.1489257812  0.77576      599.50000 0.8426       1.573911       0.157390
  92.914   0.1489257812  0.78210      600.00000 0.8618       1.382318       0.138232
  93.326   0.1489257812  0.79067      600.50000 0.8779       1.221358       0.122134
  90.727   0.1489257812  0.88014      606.00000 0.8228       1.771859       0.177185
  96.003   0.1489257812  0.87899      606.50000 0.8363       1.636568       0.163656
 101.213   0.1489257812  0.87748      607.00000 0.8495       1.504684       0.150451
  90.960   0.1489257812  0.93632      612.00000 0.8596       1.404092       0.140404
  91.879   0.1489257812  0.93411      612.50000 0.8624       1.376367       0.137636
  85.130   0.1489257812  0.87190      620.00000 0.8355       1.645470       0.164544
  85.807   0.1489257812  0.86336      620.50000 0.8404       1.596294       0.159623
  86.619   0.1489257812  0.85710      621.00000 0.8472       1.527872       0.152778
  87.439   0.1489257812  0.85420      621.50000 0.8556       1.444302       0.144420
  88.125   0.1489257812  0.85439      622.00000 0.8650       1.350543       0.135045
  88.512   0.1489257812  0.85532      622.50000 0.8747       1.252776       0.125270
  88.428   0.1489257812  0.85262      623.00000 0.8841       1.158575       0.115852
  87.728   0.1489257812  0.83834      623.50000 0.8923       1.076598       0.107656
  86.375   0.1489257812  0.80074      624.00000 0.8985       1.015486       0.101546
  84.531   0.1489257812  0.76268      624.50000 0.9018       0.981954       0.098193
 109.054   0.1489257812  0.75205      822.00000 0.6837       3.162949       0.316271
 118.628   0.1489257812  0.75062      824.50000 0.7587       2.413436       0.241316
 108.429   0.1535644531  0.85629       30.50000 0.8771       1.228772       0.122874
 109.518   0.1535644531  0.84856       31.00000 0.8744       1.256212       0.125621
 111.181   0.1535644531  0.84165       31.50000 0.8732       1.268088       0.126809
 113.321   0.1535644531  0.84003       32.00000 0.8731       1.268603       0.126859
 115.726   0.1535644531  0.84637       32.50000 0.8736       1.264366       0.126433
 121.785   0.1535644531  0.88602       99.00000 0.8354       1.646374       0.164621
 112.095   0.1535644531  0.89880      104.50000 0.8311       1.689331       0.168920
 125.631   0.1535644531  0.86640      111.00000 0.8620       1.379786       0.137976
 131.116   0.1535644531  0.86213      111.50000 0.8727       1.273455       0.127341
  97.392   0.1535644531  0.82455      363.50000 0.7398       2.602406       0.260222
  98.872   0.1535644531  0.83282      365.50000 0.7918       2.082310       0.208207
  91.036   0.1535644531  0.83425      578.00000 0.8394       1.606531       0.160634
  91.839   0.1535644531  0.75219      599.50000 0.8445       1.555318       0.155528
  93.365   0.1535644531  0.76283      600.00000 0.8628       1.372098       0.137208
  93.627   0.1535644531  0.77783      600.50000 0.8781       1.219236       0.121923
  91.672   0.1535644531  0.79795      601.00000 0.8863       1.137379       0.113732
  89.880   0.1535644531  0.86287      606.00000 0.8221       1.779135       0.177913
  95.253   0.1535644531  0.86121      606.50000 0.8359       1.641120       0.164106
  91.831   0.1535644531  0.93303      612.00000 0.8639       1.361021       0.136099
  92.674   0.1535644531  0.93082      612.50000 0.8670       1.330484       0.133048
  86.173   0.1535644531  0.86278      620.50000 0.8404       1.596231       0.159616
  86.978   0.1535644531  0.85777      621.00000 0.8478       1.522393       0.152229
  87.791   0.1535644531  0.85693      621.50000 0.8565       1.435497       0.143539
  88.468   0.1535644531  0.85878      622.00000 0.8660       1.339883       0.133978
  88.845   0.1535644531  0.86067      622.50000 0.8759       1.241140       0.124106
  88.750   0.1535644531  0.85985      623.00000 0.8854       1.146360       0.114630
  88.039   0.1535644531  0.85327      623.50000 0.8936       1.063837       0.106380
  86.680   0.1535644531  0.83430      624.00000 0.8998       1.001981       0.100195
  84.835   0.1535644531  0.79190      624.50000 0.9033       0.967396       0.096736
  82.868   0.1535644531  0.75203      625.00000 0.9037       0.962645       0.096260
 109.226   0.1582031250  0.85711       30.50000 0.8806       1.194153       0.119411
 110.166   0.1582031250  0.84864       31.00000 0.8779       1.221083       0.122108
 111.683   0.1582031250  0.84427       31.50000 0.8766       1.233561       0.123356
 113.681   0.1582031250  0.84964       32.00000 0.8765       1.235328       0.123532
 115.949   0.1582031250  0.86272       32.50000 0.8768       1.232442       0.123242
 110.630   0.1582031250  0.89049      104.50000 0.8245       1.755503       0.175536
 132.441   0.1582031250  0.84967      111.50000 0.8779       1.221398       0.122132
 126.618   0.1582031250  0.82906      115.50000 0.7793       2.207251       0.220714
  91.419   0.1582031250  0.85298      578.00000 0.8368       1.632298       0.163214
  93.979   0.1582031250  0.76762      600.50000 0.8784       1.216392       0.121639
  91.798   0.1582031250  0.79143      601.00000 0.8859       1.140693       0.114067
  88.990   0.1582031250  0.83954      606.00000 0.8209       1.791014       0.179100
  94.529   0.1582031250  0.83970      606.50000 0.8350       1.649853       0.164972
  92.742   0.1582031250  0.92653      612.00000 0.8683       1.316550       0.131653
  93.497   0.1582031250  0.92459      612.50000 0.8718       1.282150       0.128215
  87.317   0.1582031250  0.86108      621.00000 0.8485       1.514907       0.151480
  88.125   0.1582031250  0.86139      621.50000 0.8575       1.425096       0.142498
  88.797   0.1582031250  0.86318      622.00000 0.8672       1.328048       0.132794
  89.166   0.1582031250  0.86420      622.50000 0.8771       1.228640       0.122855
  89.061   0.1582031250  0.86300      623.00000 0.8867       1.133434       0.113337
  88.337   0.1582031250  0.85862      623.50000 0.8950       1.050390       0.105034
  86.965   0.1582031250  0.84909      624.00000 0.9012       0.987744       0.098771
  85.110   0.1582031250  0.82767      624.50000 0.9048       0.952057       0.095202
  83.140   0.1582031250  0.78263      625.00000 0.9054       0.945954       0.094590
 110.007   0.1628417969  0.84003       30.50000 0.8839       1.161206       0.116116
 110.789   0.1628417969  0.83559       31.00000 0.8812       1.187986       0.118798
 112.159   0.1628417969  0.84409       31.50000 0.8799       1.201386       0.120139
 114.023   0.1628417969  0.86296       32.00000 0.8795       1.204717       0.120471
 109.214   0.1628417969  0.87949      104.50000 0.8177       1.823633       0.182347
 128.400   0.1628417969  0.81545      115.00000 0.7887       2.112841       0.211280
 127.493   0.1628417969  0.81640      115.50000 0.7724       2.275646       0.227552
  97.993   0.1628417969  0.76423      363.00000 0.7459       2.541117       0.254092
  91.867   0.1628417969  0.78418      578.00000 0.8338       1.662224       0.166209
  94.737   0.1628417969  0.80605      580.00000 0.9138       0.862276       0.086221
  94.398   0.1628417969  0.75576      600.50000 0.8787       1.213424       0.121341
  91.971   0.1628417969  0.77480      601.00000 0.8857       1.143501       0.114350
  88.051   0.1628417969  0.81178      606.00000 0.8194       1.806208       0.180615
  93.690   0.1628417969  0.91638      612.00000 0.8729       1.271148       0.127114
  94.346   0.1628417969  0.91503      612.50000 0.8768       1.231949       0.123194
  88.440   0.1628417969  0.86738      621.50000 0.8587       1.412924       0.141281
  89.109   0.1628417969  0.86768      622.00000 0.8685       1.315183       0.131507
  89.473   0.1628417969  0.86687      622.50000 0.8784       1.215633       0.121554
  89.358   0.1628417969  0.86450      623.00000 0.8880       1.120298       0.112023
  88.620   0.1628417969  0.86044      623.50000 0.8963       1.036837       0.103679
  87.229   0.1628417969  0.85422      624.00000 0.9027       0.973385       0.097334
  85.356   0.1628417969  0.84382      624.50000 0.9064       0.936532       0.093649
  83.375   0.1628417969  0.82191      625.00000 0.9071       0.929017       0.092895
  81.705   0.1628417969  0.77576      625.50000 0.9052       0.948284       0.094819
 129.715   0.1628417969  0.79494     3868.50000 0.8165       1.834750       0.183469
 121.885   0.1628417969  0.75023     3869.00000 0.8134       1.865942       0.186594
 110.774   0.1674804688  0.80164       30.50000 0.8871       1.129357       0.112931
 111.386   0.1674804688  0.80033       31.00000 0.8844       1.156372       0.115636
 112.606   0.1674804688  0.81770       31.50000 0.8829       1.171092       0.117109
 114.340   0.1674804688  0.84701       32.00000 0.8824       1.176418       0.117641
 107.837   0.1674804688  0.86345      104.50000 0.8107       1.893568       0.189339
 129.162   0.1674804688  0.80002      115.00000 0.7850       2.150390       0.215034
 128.290   0.1674804688  0.80179      115.50000 0.7651       2.349451       0.234931
  94.681   0.1674804688  0.75221      580.00000 0.9131       0.869391       0.086935
  87.058   0.1674804688  0.78023      606.00000 0.8177       1.823526       0.182339
  94.667   0.1674804688  0.90503      612.00000 0.8775       1.225293       0.122529
  95.218   0.1674804688  0.90361      612.50000 0.8819       1.180538       0.118051
  89.403   0.1674804688  0.85875      622.00000 0.8699       1.301599       0.130149
  89.765   0.1674804688  0.85896      622.50000 0.8798       1.202562       0.120247
  89.642   0.1674804688  0.85749      623.00000 0.8893       1.107463       0.110739
  88.888   0.1674804688  0.85417      623.50000 0.8976       1.023719       0.102366
  87.474   0.1674804688  0.84856      624.00000 0.9041       0.959434       0.095939
  85.575   0.1674804688  0.83871      624.50000 0.9079       0.921311       0.092126
  83.572   0.1674804688  0.81707      625.00000 0.9088       0.912260       0.091219
 131.994   0.1674804688  0.77569     3868.50000 0.8127       1.873003       0.187296
 111.528   0.1721191406  0.75261       30.50000 0.8902       1.098140       0.109809
 111.956   0.1721191406  0.78317       31.00000 0.8874       1.125772       0.112576
 113.020   0.1721191406  0.82520       31.50000 0.8858       1.142232       0.114223
 114.624   0.1721191406  0.86721       32.00000 0.8850       1.150053       0.115004
 106.492   0.1721191406  0.84882      104.50000 0.8035       1.964721       0.196453
 129.839   0.1721191406  0.78222      115.00000 0.7816       2.183606       0.218355
  94.720   0.1721191406  0.76887      580.00000 0.9123       0.877218       0.087720
  95.663   0.1721191406  0.88804      612.00000 0.8821       1.179439       0.117944
  96.110   0.1721191406  0.88741      612.50000 0.8871       1.128593       0.112854
  90.043   0.1721191406  0.86231      622.50000 0.8810       1.189891       0.118979
  89.915   0.1721191406  0.85933      623.00000 0.8905       1.095407       0.109533
  89.145   0.1721191406  0.85558      623.50000 0.8989       1.011500       0.101144
  87.703   0.1721191406  0.85115      624.00000 0.9054       0.946328       0.094628
  85.769   0.1721191406  0.84557      624.50000 0.9093       0.906785       0.090673
 134.489   0.1721191406  0.76138     3868.50000 0.8090       1.909660       0.190964
 112.494   0.1767578125  0.79523       31.00000 0.8904       1.095797       0.109579
 113.396   0.1767578125  0.84746       31.50000 0.8886       1.114396       0.111440
 114.872   0.1767578125  0.89334       32.00000 0.8875       1.125223       0.112521
 105.171   0.1767578125  0.83091      104.50000 0.7964       2.036069       0.203586
  94.849   0.1767578125  0.76014      580.00000 0.9114       0.885741       0.088574
  96.667   0.1767578125  0.86701      612.00000 0.8866       1.133987       0.113398
  97.018   0.1767578125  0.86673      612.50000 0.8923       1.076751       0.107667
  90.309   0.1767578125  0.86592      622.50000 0.8822       1.178064       0.117796
  90.178   0.1767578125  0.86120      623.00000 0.8916       1.084550       0.108447
  89.394   0.1767578125  0.85680      623.50000 0.8999       1.000568       0.100051
  87.921   0.1767578125  0.85293      624.00000 0.9066       0.934411       0.093436
  85.942   0.1767578125  0.84961      624.50000 0.9107       0.893248       0.089319
 113.001   0.1813964844  0.76616       31.00000 0.8934       1.066153       0.106614
 113.734   0.1813964844  0.82311       31.50000 0.8913       1.087216       0.108722
 103.865   0.1813964844  0.81261      104.50000 0.7894       2.106174       0.210596
  97.667   0.1813964844  0.84692      612.00000 0.8911       1.089283       0.108927
  97.938   0.1813964844  0.84663      612.50000 0.8975       1.025589       0.102547
  90.564   0.1813964844  0.85832      622.50000 0.8833       1.167473       0.116737
  90.437   0.1813964844  0.85452      623.00000 0.8925       1.075235       0.107516
  89.639   0.1813964844  0.85087      623.50000 0.9009       0.991222       0.099116
  88.132   0.1813964844  0.84766      624.00000 0.9076       0.923940       0.092388
 113.473   0.1860351562  0.79465       31.00000 0.8963       1.036635       0.103663
 114.032   0.1860351562  0.85373       31.50000 0.8940       1.060377       0.106038
  98.650   0.1860351562  0.81811      612.00000 0.8954       1.045612       0.104559
  98.866   0.1860351562  0.81728      612.50000 0.9025       0.975598       0.097545
  90.694   0.1860351562  0.85585      623.00000 0.8932       1.067720       0.106764
  89.886   0.1860351562  0.85149      623.50000 0.9016       0.983678       0.098361
  88.343   0.1860351562  0.84901      624.00000 0.9085       0.915087       0.091503
 113.910   0.1906738281  0.76950       31.00000 0.8993       1.007131       0.100713
 114.292   0.1906738281  0.83008       31.50000 0.8966       1.033624       0.103362
  90.954   0.1906738281  0.84644      623.00000 0.8938       1.062181       0.106210
  90.140   0.1906738281  0.84289      623.50000 0.9022       0.978071       0.097800
 114.312   0.1953125000  0.79853       31.00000 0.9022       0.977610       0.097761
 114.517   0.1953125000  0.85818       31.50000 0.8993       1.006767       0.100676
  91.221   0.1953125000  0.84459      623.00000 0.8941       1.058716       0.105863
  90.404   0.1953125000  0.84025      623.50000 0.9026       0.974467       0.097440
 114.679   0.1999511719  0.76964       31.00000 0.9052       0.948118       0.094812
 114.710   0.1999511719  0.83019       31.50000 0.9020       0.979682       0.097968
 115.012   0.2045898438  0.78880       31.00000 0.9081       0.918760       0.091876
 114.414   0.2045898438  0.78691     2192.00000 0.8461       1.539285       0.153907
 115.385   0.2092285156  0.76199     2192.00000 0.8488       1.511653       0.151151
  84.230   0.2741699219  0.90943     1121.50000 0.6615       3.385113       0.338511
  83.959   0.2788085938  0.90464     1121.50000 0.6516       3.484158       0.348415
 141.324   0.3251953125  0.76701     3141.00000 0.8356       1.644380       0.164421
 141.180   0.3298339844  0.76353     3141.00000 0.8335       1.665013       0.166484
 141.034   0.3344726562  0.75867     3141.00000 0.8315       1.685499       0.168532
 140.884   0.3391113281  0.75241     3141.00000 0.8294       1.705843       0.170566
  90.813   0.3437500000  0.75014     1124.00000 0.8843       1.157106       0.115707
 -65.285   0.4689941406  0.79817      954.00000 0.8865       1.135162       0.113500
 -65.405   0.4736328125  0.79540      954.00000 0.8849       1.150971       0.115082
 -65.526   0.4782714844  0.79254      954.00000 0.8833       1.167035       0.116690
 -65.647   0.4829101562  0.78958      954.00000 0.8817       1.183367       0.118324
 -65.770   0.4875488281  0.78653      954.00000 0.8800       1.199978       0.119987
 -65.893   0.4921875000  0.78337      954.00000 0.8783       1.216886       0.121679
2009  31  2 14 12 150
-100.488   0.3483886719  0.75479     3342.00000 0.9254       0.745822       0.074575
  80.067   0.3483886719  0.81753     3343.50000 0.9522       0.478069       0.047807
-100.269   0.3530273438  0.75610     3342.00000 0.9244       0.756245       0.075617
  80.006   0.3530273438  0.81741     3343.50000 0.9507       0.493054       0.049305
-100.059   0.3576660156  0.75597     3342.00000 0.9233       0.767244       0.076717
  79.968   0.3576660156  0.81602     3343.50000 0.9492       0.508434       0.050843
 -99.860   0.3623046875  0.75499     3342.00000 0.9221       0.778817       0.077875
  79.948   0.3623046875  0.81396     3343.50000 0.9476       0.524200       0.052420
 -92.755   0.3669433594  0.75010     1392.00000 0.8329       1.671451       0.167136
 -99.670   0.3669433594  0.75344     3342.00000 0.9209       0.790958       0.079089
  79.945   0.3669433594  0.81147     3343.50000 0.9460       0.540347       0.054034
 -92.759   0.3715820312  0.75156     1392.00000 0.8296       1.704391       0.170430
 -99.491   0.3715820312  0.75142     3342.00000 0.9196       0.803665       0.080359
  79.954   0.3715820312  0.80863     3343.50000 0.9443       0.556870       0.055687
 100.432   0.3762207031  0.75498     1134.00000 0.8385       1.615241       0.161524
 -92.768   0.3762207031  0.75322     1392.00000 0.8261       1.738710       0.173863
  79.974   0.3762207031  0.80539     3343.50000 0.9426       0.573764       0.057376
 100.238   0.3808593750  0.77249     1134.00000 0.8364       1.635980       0.163598
 -99.162   0.3808593750  0.79279     3342.00000 0.9169       0.830754       0.083068
  80.002   0.3808593750  0.78600     3343.50000 0.9409       0.591028       0.059102
 100.065   0.3854980469  0.77120     1134.00000 0.8343       1.656743       0.165674
 -99.013   0.3854980469  0.78282     3342.00000 0.9155       0.845126       0.084506
  80.037   0.3854980469  0.77534     3343.50000 0.9391       0.608657       0.060865
  99.912   0.3901367188  0.76936     1134.00000 0.8322       1.677519       0.167752
  99.779   0.3947753906  0.76715     1134.00000 0.8302       1.698302       0.169830
  99.665   0.3994140625  0.76467     1134.00000 0.8281       1.719084       0.171907
 -98.624   0.3994140625  0.75032     3342.00000 0.9109       0.891483       0.089141
  99.568   0.4040527344  0.76199     1134.00000 0.8260       1.739859       0.173985
 -98.514   0.4040527344  0.76127     3342.00000 0.9092       0.907993       0.090792
  99.489   0.4086914062  0.75915     1134.00000 0.8239       1.760623       0.176060
 -98.413   0.4086914062  0.76445     3342.00000 0.9075       0.925022       0.092495
  99.425   0.4133300781  0.75618     1134.00000 0.8219       1.781369       0.178134
 -76.361   0.4643554688  0.82975     2403.00000 0.7215       2.784517       0.278451
 -76.358   0.4689941406  0.82042     2403.00000 0.7185       2.815097       0.281509
 -76.356   0.4736328125  0.80892     2403.00000 0.7154       2.845994       0.284598
 -76.354   0.4782714844  0.79474     2403.00000 0.7123       2.877209       0.287719
 -76.353   0.4829101562  0.77725     2403.00000 0.7091       2.908750       0.290873
 -76.352   0.4875488281  0.75578     2403.00000 0.7059       2.940617       0.294059
 -83.438   0.4968261719  0.75249     1615.00000 0.0490       9.510272       0.950990
 -83.496   0.5014648438  0.75845     1615.00000 0.0369       9.631665       0.963133
2009  31  3 22  7 150
-122.157   0.2834472656  0.76324     1798.00000 0.9619       0.380925       0.038092
-121.647   0.2880859375  0.75761     1798.00000 0.9608       0.391795       0.039179
-121.199   0.2927246094  0.75114     1798.00000 0.9596       0.403811       0.040381
-124.403   0.4179687500  0.78066     2906.50000 0.9012       0.988228       0.098821
2009  31  4 30  2 150
  59.561   0.0329589844  0.75198      800.50000 0.8972       1.028262       0.102825
  59.163   0.0329589844  0.75605      801.00000 0.8973       1.026555       0.102654
  58.766   0.0329589844  0.75998      801.50000 0.8975       1.024754       0.102475
  58.371   0.0329589844  0.76366      802.00000 0.8977       1.022876       0.102287
  57.977   0.0329589844  0.76704      802.50000 0.8979       1.020937       0.102093
  57.586   0.0329589844  0.77002      803.00000 0.8981       1.018950       0.101895
  57.198   0.0329589844  0.77253      803.50000 0.8983       1.016931       0.101693
  56.815   0.0329589844  0.77443      804.00000 0.8985       1.014891       0.101489
  56.436   0.0329589844  0.77556      804.50000 0.8987       1.012844       0.101284
  56.064   0.0329589844  0.77571      805.00000 0.8989       1.010798       0.101080
  55.697   0.0329589844  0.77467      805.50000 0.8991       1.008765       0.100876
  55.338   0.0329589844  0.77223      806.00000 0.8993       1.006752       0.100675
  54.986   0.0329589844  0.76826      806.50000 0.8995       1.004764       0.100476
  54.643   0.0329589844  0.76274      807.00000 0.8997       1.002807       0.100280
  54.310   0.0329589844  0.75579      807.50000 0.8999       1.000883       0.100088
  53.297   0.0375976562  0.84558      798.50000 0.9006       0.994176       0.099403
  52.802   0.0375976562  0.84584      799.00000 0.9006       0.994060       0.099394
  52.336   0.0375976562  0.84614      799.50000 0.9006       0.993893       0.099379
  51.900   0.0375976562  0.84646      800.00000 0.9006       0.993676       0.099360
  51.496   0.0375976562  0.84675      800.50000 0.9007       0.993406       0.099334
  51.123   0.0375976562  0.84697      801.00000 0.9007       0.993085       0.099304
  50.783   0.0375976562  0.84707      801.50000 0.9007       0.992714       0.099268
  50.475   0.0375976562  0.84705      802.00000 0.9008       0.992293       0.099227
  50.199   0.0375976562  0.84689      802.50000 0.9008       0.991827       0.099181
  49.955   0.0375976562  0.84661      803.00000 0.9009       0.991318       0.099131
  49.743   0.0375976562  0.84625      803.50000 0.9009       0.990770       0.099077
  49.562   0.0375976562  0.84583      804.00000 0.9010       0.990187       0.099019
  49.413   0.0375976562  0.84539      804.50000 0.9010       0.989574       0.098957
  49.294   0.0375976562  0.84498      805.00000 0.9011       0.988936       0.098894
  49.205   0.0375976562  0.84463      805.50000 0.9012       0.988278       0.098828
  49.144   0.0375976562  0.84436      806.00000 0.9012       0.987605       0.098760
  49.112   0.0375976562  0.84419      806.50000 0.9013       0.986922       0.098692
  49.106   0.0375976562  0.84412      807.00000 0.9014       0.986233       0.098623
  49.127   0.0375976562  0.84415      807.50000 0.9014       0.985542       0.098553
  49.173   0.0375976562  0.84426      808.00000 0.9015       0.984854       0.098484
  49.242   0.0375976562  0.84441      808.50000 0.9016       0.984170       0.098415
  49.335   0.0375976562  0.84456      809.00000 0.9017       0.983491       0.098347
  49.450   0.0375976562  0.84466      809.50000 0.9017       0.982820       0.098279
  49.585   0.0375976562  0.84464      810.00000 0.9018       0.982155       0.098213
  49.741   0.0375976562  0.84442      810.50000 0.9019       0.981496       0.098146
  49.915   0.0375976562  0.84395      811.00000 0.9019       0.980840       0.098081
  50.107   0.0375976562  0.84312      811.50000 0.9020       0.980182       0.098015
  50.317   0.0375976562  0.84185      812.00000 0.9021       0.979520       0.097948
  50.543   0.0375976562  0.84005      812.50000 0.9021       0.978846       0.097881
  50.785   0.0375976562  0.83764      813.00000 0.9022       0.978154       0.097812
  51.042   0.0375976562  0.83452      813.50000 0.9023       0.977437       0.097740
  51.313   0.0375976562  0.83062      814.00000 0.9023       0.976687       0.097665
  51.599   0.0375976562  0.82587      814.50000 0.9024       0.975894       0.097586
  51.899   0.0375976562  0.82021      815.00000 0.9025       0.975051       0.097502
  52.212   0.0375976562  0.81362      815.50000 0.9026       0.974147       0.097412
  52.540   0.0375976562  0.80611      816.00000 0.9027       0.973174       0.097315
  52.881   0.0375976562  0.79772      816.50000 0.9028       0.972125       0.097210
  53.236   0.0375976562  0.78856      817.00000 0.9029       0.970990       0.097097
  53.605   0.0375976562  0.77877      817.50000 0.9030       0.969765       0.096975
  53.988   0.0375976562  0.76858      818.00000 0.9032       0.968444       0.096843
  54.386   0.0375976562  0.75818      818.50000 0.9033       0.967023       0.096701
  58.139   0.0422363281  0.76413      819.00000 0.9015       0.984940       0.098481
  58.829   0.0422363281  0.76702      819.50000 0.9015       0.984966       0.098485
  59.511   0.0422363281  0.76980      820.00000 0.9015       0.984966       0.098486
  60.185   0.0422363281  0.77246      820.50000 0.9015       0.984933       0.098484
  60.850   0.0422363281  0.77499      821.00000 0.9015       0.984869       0.098479
  61.507   0.0422363281  0.77738      821.50000 0.9015       0.984772       0.098471
  62.156   0.0422363281  0.77966      822.00000 0.9015       0.984648       0.098459
  62.796   0.0422363281  0.78184      822.50000 0.9016       0.984502       0.098446
  63.427   0.0422363281  0.78398      823.00000 0.9016       0.984343       0.098431
  64.049   0.0422363281  0.78613      823.50000 0.9016       0.984182       0.098416
  64.660   0.0422363281  0.78839      824.00000 0.9016       0.984033       0.098401
  65.261   0.0422363281  0.79087      824.50000 0.9016       0.983910       0.098390
  65.849   0.0422363281  0.79368      825.00000 0.9016       0.983832       0.098382
  66.424   0.0422363281  0.79695      825.50000 0.9016       0.983818       0.098381
  66.984   0.0422363281  0.80076      826.00000 0.9016       0.983888       0.098388
  67.526   0.0422363281  0.80506      826.50000 0.9016       0.984063       0.098406
  68.050   0.0422363281  0.80965      827.00000 0.9016       0.984366       0.098437
  68.552   0.0422363281  0.81418      827.50000 0.9015       0.984819       0.098482
  69.029   0.0422363281  0.81823      828.00000 0.9015       0.985444       0.098544
  69.479   0.0422363281  0.82148      828.50000 0.9014       0.986261       0.098626
  69.899   0.0422363281  0.82380      829.00000 0.9013       0.987293       0.098729
  70.285   0.0422363281  0.82522      829.50000 0.9011       0.988558       0.098855
  70.634   0.0422363281  0.82589      830.00000 0.9010       0.990075       0.099007
  70.942   0.0422363281  0.82596      830.50000 0.9008       0.991859       0.099185
  71.206   0.0422363281  0.82561      831.00000 0.9006       0.993925       0.099392
  71.423   0.0422363281  0.82498      831.50000 0.9004       0.996286       0.099628
  71.589   0.0422363281  0.82418      832.00000 0.9001       0.998952       0.099894
  71.701   0.0422363281  0.82332      832.50000 0.8998       1.001932       0.100192
  71.756   0.0422363281  0.82245      833.00000 0.8995       1.005231       0.100522
  71.752   0.0422363281  0.82164      833.50000 0.8991       1.008854       0.100884
  71.686   0.0422363281  0.82091      834.00000 0.8987       1.012805       0.101279
  71.557   0.0422363281  0.82029      834.50000 0.8983       1.017083       0.101707
  71.363   0.0422363281  0.81978      835.00000 0.8978       1.021686       0.102168
  71.104   0.0422363281  0.81939      835.50000 0.8973       1.026612       0.102660
  70.779   0.0422363281  0.81912      836.00000 0.8968       1.031854       0.103184
  70.390   0.0422363281  0.81894      836.50000 0.8963       1.037403       0.103739
  69.937   0.0422363281  0.81884      837.00000 0.8957       1.043248       0.104324
  69.423   0.0422363281  0.81881      837.50000 0.8951       1.049371       0.104936
  68.849   0.0422363281  0.81881      838.00000 0.8944       1.055753       0.105574
  68.220   0.0422363281  0.81884      838.50000 0.8938       1.062369       0.106236
  67.540   0.0422363281  0.81887      839.00000 0.8931       1.069186       0.106918
  66.812   0.0422363281  0.81887      839.50000 0.8924       1.076167       0.107616
  66.042   0.0422363281  0.81883      840.00000 0.8917       1.083263       0.108325
  65.235   0.0422363281  0.81873      840.50000 0.8910       1.090421       0.109041
  64.398   0.0422363281  0.81854      841.00000 0.8902       1.097576       0.109756
  63.537   0.0422363281  0.81824      841.50000 0.8895       1.104654       0.110464
  62.659   0.0422363281  0.81776      842.00000 0.8888       1.111574       0.111156
  61.770   0.0422363281  0.81696      842.50000 0.8882       1.118243       0.111823
  60.878   0.0422363281  0.81554      843.00000 0.8875       1.124561       0.112454
  59.989   0.0422363281  0.81299      843.50000 0.8870       1.130421       0.113040
  59.112   0.0422363281  0.80848      844.00000 0.8864       1.135712       0.113568
  58.252   0.0422363281  0.80130      844.50000 0.8860       1.140319       0.114029
  57.418   0.0422363281  0.79153      845.00000 0.8856       1.144124       0.114408
  56.616   0.0422363281  0.78016      845.50000 0.8853       1.147019       0.114697
  55.854   0.0422363281  0.76815      846.00000 0.8851       1.148897       0.114884
  55.138   0.0422363281  0.75601      846.50000 0.8850       1.149662       0.114960
  45.081   0.0468750000  0.78074      478.00000 0.9518       0.482433       0.048239
  47.024   0.0468750000  0.78542      478.50000 0.9325       0.675519       0.067546
  48.170   0.0468750000  0.78940      479.00000 0.9136       0.863751       0.086367
  76.673   0.0468750000  0.75249      831.00000 0.8962       1.037822       0.103781
  76.782   0.0468750000  0.75581      831.50000 0.8961       1.038644       0.103863
  76.833   0.0468750000  0.75884      832.00000 0.8961       1.039508       0.103949
  76.822   0.0468750000  0.76147      832.50000 0.8960       1.040424       0.104040
  76.749   0.0468750000  0.76361      833.00000 0.8959       1.041403       0.104137
  76.611   0.0468750000  0.76519      833.50000 0.8958       1.042459       0.104242
  76.406   0.0468750000  0.76618      834.00000 0.8956       1.043604       0.104356
  76.133   0.0468750000  0.76656      834.50000 0.8955       1.044853       0.104480
  75.791   0.0468750000  0.76636      835.00000 0.8954       1.046219       0.104616
  75.380   0.0468750000  0.76565      835.50000 0.8952       1.047718       0.104765
  74.900   0.0468750000  0.76449      836.00000 0.8951       1.049363       0.104929
  74.351   0.0468750000  0.76296      836.50000 0.8949       1.051172       0.105109
  73.735   0.0468750000  0.76117      837.00000 0.8947       1.053155       0.105307
  73.055   0.0468750000  0.75923      837.50000 0.8945       1.055326       0.105523
  72.312   0.0468750000  0.75724      838.00000 0.8942       1.057692       0.105759
  71.510   0.0468750000  0.75533      838.50000 0.8940       1.060260       0.106015
  70.654   0.0468750000  0.75359      839.00000 0.8937       1.063031       0.106291
  69.748   0.0468750000  0.75213      839.50000 0.8934       1.065999       0.106587
  51.769   0.0468750000  0.79548      858.00000 0.8946       1.053960       0.105384
  51.987   0.0468750000  0.79678      858.50000 0.8938       1.061992       0.106190
  52.156   0.0468750000  0.79797      859.00000 0.8929       1.071543       0.107148
