 179.815   0.4643554688  0.94694     2557.50000 0.9591       0.409493       0.040949
 177.192   0.4643554688  0.94366     2558.00000 0.9544       0.456334       0.045633
 129.295   0.4643554688  0.77637     2967.50000 0.8433       1.566748       0.156673
  11.828   0.4689941406  0.81361       10.00000 0.7635       2.364826       0.236480
  -4.265   0.4689941406  0.96082      348.00000 0.7515      40.243610       4.024178
  -5.777   0.4689941406  0.76423      365.00000 0.8135      53.625748       5.361918
-179.331   0.4689941406  0.97862      679.00000 0.9022     102.212463      10.221247
-179.479   0.4689941406  0.87271      683.00000 0.9121     113.819412      11.381930
-178.278   0.4689941406  0.80365      788.50000 0.9497     198.702026      19.869930
-162.198   0.4689941406  0.85895     1322.00000 0.4153       5.846751       0.584672
-167.183   0.4689941406  0.77274     1590.50000 0.8740       1.259586       0.125957
  43.806   0.4689941406  0.84888     1865.00000 0.8353       1.647046       0.164700
-175.809   0.4689941406  0.83375     2557.00000 0.9726       0.273921       0.027392
 179.829   0.4689941406  0.94496     2557.50000 0.9588       0.412143       0.041214
 177.202   0.4689941406  0.94195     2558.00000 0.9540       0.460430       0.046043
 129.325   0.4689941406  0.78509     2967.50000 0.8401       1.599038       0.159902
  11.860   0.4736328125  0.82435       10.00000 0.7589       2.410832       0.241081
-172.144   0.4736328125  0.76753      255.50000 0.3335      15.004688       1.500458
  -4.267   0.4736328125  0.96125      348.00000 0.7583      41.368591       4.136638
  -5.773   0.4736328125  0.75598      365.00000 0.8184      55.085732       5.507874
-179.334   0.4736328125  0.97812      679.00000 0.9046     104.820396      10.482038
-179.480   0.4736328125  0.86583      683.00000 0.9143     116.698143      11.669791
-162.306   0.4736328125  0.86154     1322.00000 0.4014       5.986337       0.598632
-167.286   0.4736328125  0.77849     1590.50000 0.8708       1.292450       0.129243
  43.839   0.4736328125  0.85565     1865.00000 0.8324       1.676114       0.167608
-175.668   0.4736328125  0.83107     2557.00000 0.9727       0.272587       0.027259
 179.842   0.4736328125  0.94285     2557.50000 0.9585       0.414854       0.041485
 177.208   0.4736328125  0.94008     2558.00000 0.9535       0.464604       0.046460
 129.353   0.4736328125  0.79341     2967.50000 0.8368       1.632072       0.163206
  11.890   0.4782714844  0.83335       10.00000 0.7542       2.457883       0.245786
-172.211   0.4782714844  0.76959      255.50000 0.3490      15.360351       1.536021
-179.337   0.4782714844  0.97760      679.00000 0.9070     107.476715      10.747667
-179.482   0.4782714844  0.85850      683.00000 0.9164     119.642807      11.964241
-162.412   0.4782714844  0.86404     1322.00000 0.3872       6.127985       0.612797
-167.384   0.4782714844  0.78390     1590.50000 0.8674       1.325975       0.132595
  43.868   0.4782714844  0.86198     1865.00000 0.8294       1.705756       0.170572
-175.521   0.4782714844  0.82822     2557.00000 0.9729       0.271235       0.027123
 179.852   0.4782714844  0.94061     2557.50000 0.9582       0.417619       0.041761
 177.211   0.4782714844  0.93805     2558.00000 0.9531       0.468853       0.046885
 129.381   0.4782714844  0.80133     2967.50000 0.8334       1.665841       0.166583
  11.916   0.4829101562  0.84107       10.00000 0.7494       2.505581       0.250556
-172.277   0.4829101562  0.77100      255.50000 0.3639      15.721468       1.572129
-179.339   0.4829101562  0.97706      679.00000 0.9092     110.181389      11.018128
-179.484   0.4829101562  0.85074      683.00000 0.9185     122.653992      12.265338
-162.516   0.4829101562  0.86646     1322.00000 0.3728       6.271681       0.627167
-167.478   0.4829101562  0.78899     1590.50000 0.8640       1.360147       0.136012
  43.895   0.4829101562  0.86788     1865.00000 0.8264       1.735978       0.173594
-175.369   0.4829101562  0.82519     2557.00000 0.9730       0.269872       0.026987
 179.861   0.4829101562  0.93822     2557.50000 0.9580       0.420440       0.042043
 177.212   0.4829101562  0.93583     2558.00000 0.9527       0.473177       0.047318
  11.940   0.4875488281  0.84770       10.00000 0.7446       2.554064       0.255404
-172.341   0.4875488281  0.77186      255.50000 0.3784      16.087864       1.608765
-179.342   0.4875488281  0.97650      679.00000 0.9115     112.933990      11.293378
-179.486   0.4875488281  0.84262      683.00000 0.9205     125.732239      12.573136
   0.999   0.4875488281  0.93859      713.00000 0.9731     371.974915      37.197479
-162.617   0.4875488281  0.86880     1322.00000 0.3583       6.417415       0.641741
-167.566   0.4875488281  0.79379     1590.50000 0.8605       1.394955       0.139493
  43.917   0.4875488281  0.87334     1865.00000 0.8233       1.766771       0.176674
-175.212   0.4875488281  0.82196     2557.00000 0.9732       0.268494       0.026849
 179.868   0.4875488281  0.93565     2557.50000 0.9577       0.423316       0.042331
 177.209   0.4875488281  0.93342     2558.00000 0.9522       0.477578       0.047758
 129.997   0.4875488281  0.84387     3270.00000 0.7751       2.249476       0.224947
  11.962   0.4921875000  0.85355       10.00000 0.7396       2.604087       0.260406
-172.403   0.4921875000  0.77225      255.50000 0.3924      16.459358       1.645909
-179.344   0.4921875000  0.97593      679.00000 0.9136     115.734474      11.573415
-179.488   0.4921875000  0.83422      683.00000 0.9224     128.878082      12.887687
   1.005   0.4921875000  0.94217      713.00000 0.9736     378.087006      37.808662
  -1.357   0.4921875000  0.89161      847.00000 0.6479      28.406551       2.840262
-167.650   0.4921875000  0.79831     1590.50000 0.8570       1.430388       0.143036
  43.937   0.4921875000  0.87838     1865.00000 0.8202       1.798148       0.179812
-175.050   0.4921875000  0.81850     2557.00000 0.9733       0.267105       0.026710
 179.873   0.4921875000  0.93288     2557.50000 0.9574       0.426249       0.042624
 177.204   0.4921875000  0.93078     2558.00000 0.9518       0.482053       0.048205
 130.087   0.4921875000  0.84707     3270.00000 0.7700       2.299621       0.229962
  11.983   0.4968261719  0.85864       10.00000 0.7345       2.654746       0.265472
-172.464   0.4968261719  0.77223      255.50000 0.4060      16.835827       1.683551
-179.346   0.4968261719  0.97535      679.00000 0.9157     118.582466      11.858198
-179.490   0.4968261719  0.82564      683.00000 0.9243     132.092270      13.209064
   1.010   0.4968261719  0.94520      713.00000 0.9740     384.222107      38.422131
  -1.365   0.4968261719  0.88222      847.00000 0.6552      29.008142       2.900426
-167.729   0.4968261719  0.80257     1590.50000 0.8534       1.466434       0.146641
  43.953   0.4968261719  0.88300     1865.00000 0.8170       1.830098       0.183007
-174.883   0.4968261719  0.81480     2557.00000 0.9734       0.265704       0.026570
 179.877   0.4968261719  0.92988     2557.50000 0.9571       0.429241       0.042923
 177.196   0.4968261719  0.92788     2558.00000 0.9513       0.486605       0.048660
 130.174   0.4968261719  0.85015     3270.00000 0.7649       2.350527       0.235053
  12.002   0.5014648438  0.86311       10.00000 0.7294       2.706316       0.270629
-172.523   0.5014648438  0.77185      255.50000 0.4192      17.217121       1.721674
-179.348   0.5014648438  0.97474      679.00000 0.9177     121.477882      12.147720
-179.491   0.5014648438  0.81702      683.00000 0.9261     135.375153      13.537306
   1.015   0.5014648438  0.94777      713.00000 0.9744     390.381592      39.038025
  -1.374   0.5014648438  0.87238      847.00000 0.6623      29.619259       2.961542
-167.804   0.5014648438  0.80659     1590.50000 0.8497       1.503076       0.150305
  43.967   0.5014648438  0.88722     1865.00000 0.8137       1.862623       0.186260
-174.710   0.5014648438  0.81081     2557.00000 0.9736       0.264291       0.026429
 179.879   0.5014648438  0.92659     2557.50000 0.9568       0.432286       0.043228
 177.185   0.5014648438  0.92469     2558.00000 0.9509       0.491229       0.049123
 130.260   0.5014648438  0.85313     3270.00000 0.7598       2.402182       0.240218
2009   7  4 29 26 350
 -90.303   0.3344726562  0.76354     3916.00000 0.9146       0.854510       0.085440
 -90.162   0.3391113281  0.78116     3916.00000 0.9116       0.883642       0.088352
 -90.053   0.3437500000  0.79560     3916.00000 0.9087       0.913548       0.091342
 -89.973   0.3483886719  0.84219     3916.00000 0.9056       0.944240       0.094411
 -89.917   0.3530273438  0.84937     3916.00000 0.9024       0.975726       0.097559
 -89.884   0.3576660156  0.85561     3916.00000 0.8992       1.008018       0.100787
 -89.871   0.3623046875  0.86117     3916.00000 0.8959       1.041125       0.104097
  75.765   0.3669433594  0.75875     2317.00000 0.6528       3.471988       0.347194
 -89.875   0.3669433594  0.86622     3916.00000 0.8925       1.075059       0.107489
  75.808   0.3715820312  0.77036     2317.00000 0.6440       3.560504       0.356044
  75.857   0.3762207031  0.78026     2317.00000 0.6349       3.650841       0.365076
  75.911   0.3808593750  0.79378     2317.00000 0.6257       3.742993       0.374290
  75.970   0.3854980469  0.80185     2317.00000 0.6163       3.836953       0.383684
  76.034   0.3901367188  0.80928     2317.00000 0.6067       3.932713       0.393258
-117.526   0.3947753906  0.75502      876.00000 0.8194       1.806364       0.180636
-124.849   0.3947753906  0.75817      876.50000 0.8889       1.111086       0.111105
  76.103   0.3947753906  0.81615     2317.00000 0.5970       4.030259       0.403010
-117.422   0.3994140625  0.76776      876.00000 0.8191       1.808927       0.180892
-124.987   0.3994140625  0.77085      876.50000 0.8899       1.101206       0.110117
  76.175   0.3994140625  0.82250     2317.00000 0.5871       4.129578       0.412940
-117.323   0.4040527344  0.77494      876.00000 0.8189       1.811485       0.181148
-125.141   0.4040527344  0.77719      876.50000 0.8909       1.091002       0.109097
  76.251   0.4040527344  0.82837     2317.00000 0.5770       4.230654       0.423045
-117.227   0.4086914062  0.77615      876.00000 0.8186       1.814046       0.181404
  76.330   0.4086914062  0.83382     2317.00000 0.5667       4.333466       0.433323
-117.136   0.4133300781  0.77195      876.00000 0.8183       1.816605       0.181660
  76.412   0.4133300781  0.83885     2317.00000 0.5562       4.437995       0.443773
  76.497   0.4179687500  0.89908     2317.00000 0.5456       4.544216       0.454392
  64.106   0.4782714844  0.75348     1078.00000 0.6593       3.407510       0.340703
  64.189   0.4829101562  0.76055     1078.00000 0.6535       3.465041       0.346454
  64.269   0.4875488281  0.76721     1078.00000 0.6477       3.523553       0.352303
 -91.185   0.4968261719  0.79622      275.50000 0.7050       2.949614       0.294954
 -91.260   0.5014648438  0.80079      275.50000 0.6975       3.025379       0.302531
-168.525   0.5014648438  0.77698     1440.00000 0.9139       0.861137       0.086107
 127.484   0.5014648438  0.75823     1713.00000 0.5687       4.313424       0.431321
  50.382   0.5014648438  0.75603     2646.00000 0.7751       2.249266       0.224919
 105.020   0.5014648438  0.75605     3813.00000 0.7241       2.759136       0.275914
2009   7  5 37 21 350
   7.607   0.1396484375  0.77401      156.50000 0.8827       1.173160       0.117309
   5.600   0.1396484375  0.77546      157.00000 0.8765       1.235027       0.123503
   5.321   0.1396484375  0.77540      157.50000 0.8707       1.292647       0.129256
   8.789   0.1442871094  0.82980      156.50000 0.8799       1.201286       0.120122
   6.934   0.1442871094  0.81833      157.00000 0.8738       1.262164       0.126216
   6.684   0.1442871094  0.80831      157.50000 0.8681       1.319317       0.131924
   9.667   0.1489257812  0.86977      156.50000 0.8771       1.229093       0.122903
   7.954   0.1489257812  0.85228      157.00000 0.8710       1.289945       0.128994
   7.745   0.1489257812  0.83743      157.50000 0.8653       1.346951       0.134688
   8.726   0.1535644531  0.88141      157.00000 0.8681       1.318661       0.131866
   8.562   0.1535644531  0.86421      157.50000 0.8624       1.375719       0.137566
   9.299   0.1582031250  0.90359      157.00000 0.8651       1.348695       0.134869
   9.177   0.1582031250  0.88679      157.50000 0.8594       1.405916       0.140587
   9.709   0.1628417969  0.91403      157.00000 0.8620       1.380439       0.138043
   9.623   0.1628417969  0.90197      157.50000 0.8562       1.437882       0.143784
  94.034   0.1628417969  0.75179     3581.00000 0.9783       0.217176       0.021717
   9.988   0.1674804688  0.90815      157.00000 0.8586       1.414261       0.141425
   9.928   0.1674804688  0.89489      157.50000 0.8528       1.471953       0.147192
  11.107   0.1674804688  0.87352      158.00000 0.8489       1.511464       0.151125
  10.160   0.1721191406  0.89961      157.00000 0.8550       1.450489       0.145047
  10.114   0.1721191406  0.89428      157.50000 0.8492       1.508440       0.150842
  11.277   0.1721191406  0.87843      158.00000 0.8455       1.544696       0.154450
  10.247   0.1767578125  0.88133      157.00000 0.8511       1.489405       0.148938
  10.201   0.1767578125  0.88014      157.50000 0.8452       1.547607       0.154759
  11.337   0.1767578125  0.87349      158.00000 0.8421       1.579664       0.157949
   9.895   0.1767578125  0.83798     3241.50000 0.8184       1.815760       0.181560
  10.267   0.1813964844  0.86122      157.00000 0.8469       1.531245       0.153121
  10.207   0.1813964844  0.86011      157.50000 0.8410       1.589671       0.158966
  11.301   0.1813964844  0.85318      158.00000 0.8384       1.616442       0.161629
   9.655   0.1813964844  0.83183     3241.50000 0.8316       1.684233       0.168411
  10.237   0.1860351562  0.83257      157.00000 0.8424       1.576210       0.157617
  10.147   0.1860351562  0.83129      157.50000 0.8365       1.634802       0.163480
  11.183   0.1860351562  0.82958      158.00000 0.8345       1.655027       0.165489
   9.424   0.1860351562  0.83450     3241.50000 0.8439       1.560873       0.156078
  10.169   0.1906738281  0.80400      157.00000 0.8376       1.624470       0.162441
  10.037   0.1906738281  0.80292      157.50000 0.8317       1.683118       0.168312
  10.998   0.1906738281  0.80129      158.00000 0.8305       1.695333       0.169521
  10.076   0.1953125000  0.76421      157.00000 0.8324       1.676171       0.167610
   9.887   0.1953125000  0.76386      157.50000 0.8265       1.734688       0.173469
  10.755   0.1953125000  0.76193      158.00000 0.8263       1.737194       0.173708
  -6.118   0.2416992188  0.80783      149.00000 0.9236       0.764588       0.076448
  -7.935   0.2463378906  0.78457      149.00000 0.9275       0.724638       0.072454
   6.715   0.2463378906  0.75591     3237.50000 0.9784       0.216502       0.021650
   1.726   0.2463378906  0.75610     3238.00000 0.9827       0.172676       0.017267
   0.201   0.2463378906  0.75628     3238.50000 0.9891       0.109049       0.010905
   9.662   0.2463378906  0.75294     3239.00000 0.9917       0.083250       0.008325
  -9.921   0.2509765625  0.75639      149.00000 0.9316       0.683811       0.068373
  -7.738   0.2509765625  0.75952      149.50000 0.9368       0.631984       0.063194
   8.365   0.2509765625  0.75293     3239.00000 0.9923       0.077221       0.007722
  -3.280   0.2556152344  0.75186     3238.50000 0.9890       0.109738       0.010974
   7.103   0.2556152344  0.75733     3239.00000 0.9928       0.071912       0.007191
   1.160   0.2602539062  0.75139     3237.50000 0.9763       0.237270       0.023727
  -2.529   0.2602539062  0.75141     3238.00000 0.9811       0.188709       0.018871
  -4.662   0.2602539062  0.75597     3238.50000 0.9889       0.111073       0.011107
   5.898   0.2602539062  0.76193     3239.00000 0.9933       0.067187       0.006719
  -3.519   0.2648925781  0.75103     3238.00000 0.9804       0.195663       0.019566
  -5.816   0.2648925781  0.75768     3238.50000 0.9887       0.112859       0.011286
   4.772   0.2648925781  0.76153     3239.00000 0.9937       0.062929       0.006293
  -4.328   0.2695312500  0.75290     3238.00000 0.9797       0.203120       0.020312
  -6.761   0.2695312500  0.76007     3238.50000 0.9885       0.114972       0.011497
   3.738   0.2695312500  0.76413     3239.00000 0.9941       0.059039       0.005904
  -7.519   0.2741699219  0.75337     3238.50000 0.9883       0.117313       0.011731
   2.809   0.2741699219  0.75757     3239.00000 0.9945       0.055430       0.005543
 -32.607   0.3020019531  0.75148     3627.00000 0.9683       0.317095       0.031708
 -24.468   0.3020019531  0.75163     3627.50000 0.9664       0.336356       0.033635
 -33.127   0.3066406250  0.75022     3627.00000 0.9677       0.322689       0.032267
 -34.955   0.3251953125  0.79272     3627.00000 0.9658       0.342018       0.034200
 -35.364   0.3298339844  0.78405     3627.00000 0.9654       0.346137       0.034612
 -35.757   0.3344726562  0.77436     3627.00000 0.9650       0.349987       0.034997
 -36.138   0.3391113281  0.76391     3627.00000 0.9646       0.353577       0.035356
 -36.507   0.3437500000  0.75293     3627.00000 0.9643       0.356914       0.035690
 -36.866   0.3483886719  0.78436     3627.00000 0.9640       0.360005       0.035999
 -37.215   0.3530273438  0.77393     3627.00000 0.9637       0.362855       0.036284
 -37.557   0.3576660156  0.76320     3627.00000 0.9635       0.365473       0.036546
 -37.892   0.3623046875  0.75223     3627.00000 0.9632       0.367862       0.036785
  83.367   0.3994140625  0.75625     1254.00000 0.4835       5.165643       0.516544
  83.445   0.4040527344  0.77583     1254.00000 0.4648       5.352645       0.535246
  83.518   0.4086914062  0.79406     1254.00000 0.4458       5.542093       0.554193
  83.586   0.4133300781  0.81027     1254.00000 0.4266       5.733846       0.573370
 -90.297   0.4272460938  0.76358     1077.50000 0.6351       3.649041       0.364894
 -90.297   0.4318847656  0.78253     1077.50000 0.6266       3.734571       0.373448
 -90.296   0.4365234375  0.79906     1077.50000 0.6178       3.822078       0.382199
 -90.293   0.4411621094  0.81317     1077.50000 0.6089       3.911544       0.391146
 -90.290   0.4458007812  0.82514     1077.50000 0.5997       4.002947       0.400287
 -90.285   0.4504394531  0.83534     1077.50000 0.5904       4.096272       0.409620
 -90.279   0.4550781250  0.84410     1077.50000 0.5809       4.191501       0.419143
 -90.272   0.4597167969  0.85171     1077.50000 0.5711       4.288617       0.428855
 113.185   0.4597167969  0.75358     1952.00000 0.6417       3.583289       0.358327
 -90.264   0.4643554688  0.86105     1077.50000 0.5612       4.387607       0.438754
 113.107   0.4643554688  0.76688     1952.00000 0.6334       3.666260       0.366624
 -90.256   0.4689941406  0.86748     1077.50000 0.5512       4.488452       0.448839
 113.028   0.4689941406  0.77166     1952.00000 0.6250       3.750105       0.375009
  15.497   0.4689941406  0.75238     3241.50000 0.9210       0.790132       0.079013
 -90.246   0.4736328125  0.87325     1077.50000 0.5409       4.591139       0.459108
  15.426   0.4736328125  0.75830     3241.50000 0.9195       0.804601       0.080460
  15.354   0.4782714844  0.76360     3241.50000 0.9181       0.819321       0.081932
  15.281   0.4829101562  0.76638     3241.50000 0.9166       0.834288       0.083429
  15.056   0.4968261719  0.76201     3241.50000 0.9119       0.880629       0.088063
  14.980   0.5014648438  0.76727     3241.50000 0.9103       0.896543       0.089654
2009   7  6 45 16 350
  39.275   0.1303710938  0.76659     1083.00000 0.7477       2.523335       0.252295
   9.315   0.1396484375  0.75506     1077.00000 0.7882       2.117891       0.211785
  36.835   0.1396484375  0.81668     1082.50000 0.7909       2.091199       0.209093
   9.709   0.1442871094  0.76184     1077.00000 0.7949       2.051274       0.205119
  36.187   0.1442871094  0.80006     1082.50000 0.7956       2.044203       0.204394
   9.968   0.1489257812  0.75676     1077.00000 0.8023       1.977210       0.197705
  36.828   0.1489257812  0.76437     1082.00000 0.8185       1.814997       0.181475
 -93.628   0.2138671875  0.80448     1574.00000 0.9151       0.849125       0.084906
 -91.551   0.2185058594  0.81118     1574.00000 0.9175       0.824773       0.082472
 -89.410   0.2231445312  0.80860     1574.00000 0.9195       0.804708       0.080466
 -89.977   0.2231445312  0.80926     1574.50000 0.9107       0.892726       0.089272
 -87.234   0.2277832031  0.79851     1574.00000 0.9212       0.788138       0.078810
 -88.126   0.2277832031  0.79862     1574.50000 0.9123       0.877456       0.087745
 -85.045   0.2324218750  0.78299     1574.00000 0.9226       0.774394       0.077435
 -86.339   0.2324218750  0.78273     1574.50000 0.9134       0.865569       0.086556
 -82.869   0.2370605469  0.75352     1574.00000 0.9237       0.762902       0.076286
 -84.635   0.2370605469  0.76299     1574.50000 0.9144       0.856378       0.085636
-108.978   0.3994140625  0.76866     2637.00000 0.7896       2.104260       0.210396
-108.912   0.4040527344  0.77603     2637.00000 0.7880       2.120340       0.212005
  67.483   0.4086914062  0.75078      503.50000 0.7025       2.974917       0.297492
-108.851   0.4086914062  0.78308     2637.00000 0.7863       2.137249       0.213696
  67.584   0.4133300781  0.75685      503.50000 0.6984       3.016011       0.301601
-108.797   0.4133300781  0.78963     2637.00000 0.7845       2.154978       0.215469
  67.686   0.4179687500  0.75361      503.50000 0.6942       3.058253       0.305825
-108.750   0.4179687500  0.85011     2637.00000 0.7827       2.173514       0.217323
  67.787   0.4226074219  0.75887      503.50000 0.6898       3.101637       0.310164
-108.707   0.4226074219  0.85283     2637.00000 0.7807       2.192845       0.219256
  67.889   0.4272460938  0.76282      503.50000 0.6854       3.146158       0.314616
-108.671   0.4272460938  0.85432     2637.00000 0.7787       2.212959       0.221268
  67.990   0.4318847656  0.76522      503.50000 0.6808       3.191805       0.319180
  68.090   0.4365234375  0.76570      503.50000 0.6761       3.238571       0.323857
  68.191   0.4411621094  0.76375      503.50000 0.6714       3.286444       0.328644
  68.291   0.4458007812  0.75860      503.50000 0.6665       3.335413       0.333541
 117.830   0.4643554688  0.85848     2221.00000 0.6082       3.917964       0.391753
 117.877   0.4689941406  0.85998     2221.00000 0.6000       3.999997       0.399955
 117.923   0.4736328125  0.86142     2221.00000 0.5917       4.083667       0.408321
 117.968   0.4782714844  0.86279     2221.00000 0.5832       4.168956       0.416848
 118.013   0.4829101562  0.86412     2221.00000 0.5745       4.255844       0.425535
 118.058   0.4875488281  0.86540     2221.00000 0.5656       4.344311       0.434380
 118.102   0.4921875000  0.86665     2221.00000 0.5566       4.434337       0.443381
  31.381   0.4921875000  0.75548     2638.50000 0.9908       0.091891       0.009189
 118.145   0.4968261719  0.86787     2221.00000 0.5475       4.525902       0.452535
  36.291   0.4968261719  0.76492     2638.50000 0.9896       0.104419       0.010442
 118.188   0.5014648438  0.86908     2221.00000 0.5382       4.618986       0.461842
  40.185   0.5014648438  0.76751     2638.50000 0.9882       0.117805       0.011780
2009   7  7 53 11 350
  83.283   0.2648925781  0.75722     3103.00000 0.8433       1.567424       0.156727
 -91.569   0.2648925781  0.76256     3105.00000 0.9226       0.773693       0.077365
  82.982   0.2695312500  0.76944     3103.00000 0.8430       1.570654       0.157049
 -92.617   0.2695312500  0.78320     3105.00000 0.9212       0.788506       0.078846
  82.690   0.2741699219  0.77926     3103.00000 0.8422       1.578550       0.157838
 -93.591   0.2741699219  0.79918     3105.00000 0.9195       0.805350       0.080530
  72.691   0.2788085938  0.77961     1466.50000 0.8548       1.451677       0.145164
  82.407   0.2788085938  0.78690     3103.00000 0.8410       1.590685       0.159050
 -94.495   0.2788085938  0.81181     3105.00000 0.9176       0.824103       0.082405
  72.895   0.2834472656  0.80800     1466.50000 0.8499       1.500827       0.150079
 -95.331   0.2834472656  0.81523     3105.00000 0.9155       0.844667       0.084460
  73.080   0.2880859375  0.82649     1466.50000 0.8447       1.552748       0.155270
 -96.102   0.2880859375  0.82207     3105.00000 0.9133       0.866963       0.086689
  73.248   0.2927246094  0.84008     1466.50000 0.8393       1.607439       0.160739
 -96.811   0.2927246094  0.82721     3105.00000 0.9109       0.890926       0.089085
  73.398   0.2973632812  0.85044     1466.50000 0.8335       1.664904       0.166485
 -97.461   0.2973632812  0.83092     3105.00000 0.9084       0.916503       0.091641
  73.532   0.3020019531  0.85151     1466.50000 0.8275       1.725149       0.172509
 -98.056   0.3020019531  0.82436     3105.00000 0.9056       0.943653       0.094355
  73.652   0.3066406250  0.85808     1466.50000 0.8212       1.788181       0.178812
 -98.598   0.3066406250  0.82541     3105.00000 0.9028       0.972342       0.097223
  73.757   0.3112792969  0.86240     1466.50000 0.8146       1.854008       0.185394
  73.850   0.3159179688  0.86439     1466.50000 0.8077       1.922633       0.192256
  73.930   0.3205566406  0.86389     1466.50000 0.8006       1.994062       0.199399
  74.000   0.3251953125  0.85193     1466.50000 0.7932       2.068296       0.206821
  74.060   0.3298339844  0.84578     1466.50000 0.7855       2.145330       0.214524
  74.111   0.3344726562  0.83688     1466.50000 0.7775       2.225160       0.222507
  44.268   0.3808593750  0.81839     1302.00000 0.7264       2.735718       0.273564
  44.215   0.3854980469  0.82338     1302.00000 0.7181       2.819478       0.281941
  44.156   0.3901367188  0.82768     1302.00000 0.7095       2.905264       0.290521
  44.091   0.3947753906  0.83140     1302.00000 0.7007       2.993054       0.299301
  41.599   0.3994140625  0.75239      228.00000 0.9103       0.897506       0.089750
  44.020   0.3994140625  0.83463     1302.00000 0.6917       3.082822       0.308278
  41.363   0.4040527344  0.75452      228.00000 0.9078       0.921849       0.092184
  43.945   0.4040527344  0.83745     1302.00000 0.6825       3.174545       0.317451
-122.734   0.4040527344  0.76387     2931.00000 0.7673       2.326968       0.232696
  35.648   0.4040527344  0.75552     2932.00000 0.9098       0.901950       0.090194
 -87.831   0.4040527344  0.84159     3128.50000 0.1602      11.908874       1.190732
  41.140   0.4086914062  0.75631      228.00000 0.9053       0.946758       0.094675
  43.864   0.4086914062  0.83993     1302.00000 0.6732       3.268190       0.326817
-122.808   0.4086914062  0.77519     2931.00000 0.7655       2.345076       0.234507
  36.042   0.4086914062  0.76723     2932.00000 0.9083       0.917305       0.091730
  40.931   0.4133300781  0.75781      228.00000 0.9028       0.972228       0.097222
  43.780   0.4133300781  0.84211     1302.00000 0.6636       3.363726       0.336371
-122.880   0.4133300781  0.77945     2931.00000 0.7637       2.363424       0.236342
  36.422   0.4133300781  0.77173     2932.00000 0.9067       0.932697       0.093270
  40.734   0.4179687500  0.83893      228.00000 0.9002       0.998255       0.099825
  43.692   0.4179687500  0.84886     1302.00000 0.6539       3.461118       0.346111
-122.951   0.4179687500  0.75927     2931.00000 0.7618       2.381963       0.238196
  40.548   0.4226074219  0.83997      228.00000 0.8975       1.024836       0.102483
  43.600   0.4226074219  0.85019     1302.00000 0.6440       3.560329       0.356032
  40.373   0.4272460938  0.84080      228.00000 0.8948       1.051967       0.105197
  43.506   0.4272460938  0.85135     1302.00000 0.6339       3.661320       0.366132
  40.208   0.4318847656  0.84145      228.00000 0.8920       1.079644       0.107964
  40.051   0.4365234375  0.84195      228.00000 0.8892       1.107865       0.110786
  38.142   0.4365234375  0.80325     2932.00000 0.8990       1.009843       0.100984
  39.904   0.4411621094  0.84233      228.00000 0.8863       1.136627       0.113663
  38.452   0.4411621094  0.83255     2932.00000 0.8975       1.025236       0.102523
  39.764   0.4458007812  0.84261      228.00000 0.8834       1.165926       0.116593
-148.255   0.4504394531  0.75017      226.00000 0.8032       1.968521       0.196833
  39.631   0.4504394531  0.84281      228.00000 0.8804       1.195760       0.119576
-148.192   0.4550781250  0.75269      226.00000 0.7987       2.013546       0.201334
  39.506   0.4550781250  0.84294      228.00000 0.8774       1.226125       0.122612
 163.493   0.4550781250  0.76492     1211.50000 0.8756       1.243761       0.124367
-148.128   0.4597167969  0.75514      226.00000 0.7941       2.059325       0.205911
  39.387   0.4597167969  0.84303      228.00000 0.8743       1.257018       0.125702
 163.318   0.4597167969  0.77239     1211.50000 0.8708       1.291864       0.129177
  39.274   0.4643554688  0.87940      228.00000 0.8712       1.288436       0.128844
 163.158   0.4643554688  0.75855     1211.50000 0.8659       1.341324       0.134123
  39.167   0.4689941406  0.88116      228.00000 0.8680       1.320377       0.132038
 163.013   0.4689941406  0.76268     1211.50000 0.8608       1.392128       0.139204
-147.940   0.4736328125  0.75074      226.00000 0.7799       2.201118       0.220086
  39.064   0.4736328125  0.88289      228.00000 0.8647       1.352837       0.135284
 162.880   0.4736328125  0.76521     1211.50000 0.8556       1.444261       0.144417
-147.878   0.4782714844  0.75321      226.00000 0.7750       2.249842       0.224957
  38.967   0.4782714844  0.88461      228.00000 0.8614       1.385813       0.138581
 162.758   0.4782714844  0.76628     1211.50000 0.8502       1.497710       0.149763
-147.816   0.4829101562  0.75564      226.00000 0.7701       2.299283       0.229900
  38.875   0.4829101562  0.88632      228.00000 0.8581       1.419303       0.141930
 162.647   0.4829101562  0.76602     1211.50000 0.8448       1.552464       0.155238
-147.755   0.4875488281  0.75805      226.00000 0.7651       2.349431       0.234913
  38.787   0.4875488281  0.88803      228.00000 0.8547       1.453303       0.145330
 162.546   0.4875488281  0.76451     1211.50000 0.8392       1.608511       0.160843
-147.695   0.4921875000  0.76043      226.00000 0.7600       2.400280       0.239997
  38.703   0.4921875000  0.88973      228.00000 0.8512       1.487809       0.148780
 162.453   0.4921875000  0.76186     1211.50000 0.8334       1.665840       0.166576
-147.635   0.4968261719  0.76279      226.00000 0.7549       2.451819       0.245149
  38.622   0.4968261719  0.89142      228.00000 0.8477       1.522820       0.152281
 162.368   0.4968261719  0.75816     1211.50000 0.8276       1.724439       0.172436
-126.337   0.4968261719  0.89626     2930.50000 0.2144       7.855994       0.785570
-147.575   0.5014648438  0.76511      226.00000 0.7496       2.504040       0.250369
  38.545   0.5014648438  0.89310      228.00000 0.8442       1.558330       0.155832
 162.290   0.5014648438  0.75350     1211.50000 0.8216       1.784297       0.178423
2009   7  9  1  6 350
  22.951   0.1628417969  0.78481     2131.00000 0.8453       1.546766       0.154676
  44.313   0.1674804688  0.75925     1989.00000 0.6592       3.408415       0.340818
  27.681   0.1674804688  0.75596     2130.50000 0.8596       1.403826       0.140373
  23.913   0.1674804688  0.75583     2131.00000 0.8526       1.473864       0.147386
 -64.095   0.2509765625  0.77898       88.50000 0.9094       0.906074       0.090607
 -72.867   0.2509765625  0.75251       89.00000 0.9092       0.907926       0.090786
 -63.416   0.2556152344  0.76717       88.50000 0.9084       0.915576       0.091558
 -62.745   0.2602539062  0.75385       88.50000 0.9075       0.925309       0.092531
 -65.930   0.3483886719  0.76342       79.50000 0.7378       2.622275       0.262222
 -65.374   0.3530273438  0.84160       79.50000 0.7337       2.663437       0.266336
  58.961   0.3808593750  0.79929     1555.00000 0.7941       2.058774       0.205877
  48.365   0.3808593750  0.79645     1559.50000 0.7536       2.464247       0.246413
  58.809   0.3854980469  0.80817     1555.00000 0.7887       2.112610       0.211261
  48.461   0.3854980469  0.80345     1559.50000 0.7460       2.539788       0.253966
  58.661   0.3901367188  0.81662     1555.00000 0.7832       2.167688       0.216769
  48.556   0.3901367188  0.81028     1559.50000 0.7383       2.617150       0.261701
  58.518   0.3947753906  0.82465     1555.00000 0.7776       2.224002       0.222400
  48.652   0.3947753906  0.81691     1559.50000 0.7304       2.696321       0.269617
  58.378   0.3994140625  0.83230     1555.00000 0.7718       2.281543       0.228154
  48.748   0.3994140625  0.82331     1559.50000 0.7223       2.777291       0.277712
  58.243   0.4040527344  0.83958     1555.00000 0.7660       2.340303       0.234030
  48.843   0.4040527344  0.82931     1559.50000 0.7140       2.860043       0.285985
  58.112   0.4086914062  0.84649     1555.00000 0.7600       2.400275       0.240027
  48.939   0.4086914062  0.83375     1559.50000 0.7056       2.944565       0.294436
  57.985   0.4133300781  0.85307     1555.00000 0.7539       2.461450       0.246145
  49.034   0.4133300781  0.80749     1559.50000 0.6969       3.030839       0.303061
  57.863   0.4179687500  0.85556     1555.00000 0.7476       2.523819       0.252382
  49.129   0.4179687500  0.84205     1559.50000 0.6881       3.118849       0.311860
-121.042   0.4179687500  0.77312     1561.50000 0.6603       3.397644       0.339733
-101.775   0.4226074219  0.75921      443.00000 0.9391       0.609219       0.060919
  57.745   0.4226074219  0.86177     1555.00000 0.7413       2.587375       0.258737
-121.149   0.4226074219  0.77941     1561.50000 0.6531       3.469519       0.346920
-101.902   0.4272460938  0.76678      443.00000 0.9367       0.633001       0.063297
  57.631   0.4272460938  0.86766     1555.00000 0.7348       2.652110       0.265211
-121.249   0.4272460938  0.78519     1561.50000 0.6457       3.543013       0.354269
-102.024   0.4318847656  0.77244      443.00000 0.9343       0.657403       0.065737
  57.521   0.4318847656  0.87325     1555.00000 0.7282       2.718011       0.271801
-121.343   0.4318847656  0.79066     1561.50000 0.6382       3.618099       0.361778
-102.141   0.4365234375  0.77663      443.00000 0.9318       0.682425       0.068239
  57.415   0.4365234375  0.87855     1555.00000 0.7215       2.785073       0.278507
-121.431   0.4365234375  0.79585     1561.50000 0.6306       3.694747       0.369442
-102.254   0.4411621094  0.77966      443.00000 0.9292       0.708068       0.070803
  57.314   0.4411621094  0.88357     1555.00000 0.7147       2.853284       0.285328
-121.513   0.4411621094  0.80075     1561.50000 0.6227       3.772934       0.377261
-102.363   0.4458007812  0.78175      443.00000 0.9266       0.734329       0.073428
  57.216   0.4458007812  0.88833     1555.00000 0.7077       2.922635       0.292263
-121.589   0.4458007812  0.80538     1561.50000 0.6148       3.852628       0.385230
-102.467   0.4504394531  0.78302      443.00000 0.9239       0.761208       0.076116
  57.122   0.4504394531  0.89283     1555.00000 0.7007       2.993114       0.299311
-121.660   0.4504394531  0.80973     1561.50000 0.6067       3.933800       0.393346
-102.568   0.4550781250  0.78359      443.00000 0.9211       0.788705       0.078866
  57.031   0.4550781250  0.89709     1555.00000 0.6935       3.064713       0.306471
-121.725   0.4550781250  0.81380     1561.50000 0.5984       4.016420       0.401608
-102.665   0.4597167969  0.78348      443.00000 0.9183       0.816818       0.081676
  56.945   0.4597167969  0.90113     1555.00000 0.6863       3.137420       0.313742
-102.758   0.4643554688  0.76859      443.00000 0.9155       0.845546       0.084549
  56.861   0.4643554688  0.90329     1555.00000 0.6789       3.211223       0.321122
-102.847   0.4689941406  0.76660      443.00000 0.9125       0.874886       0.087483
  56.781   0.4689941406  0.90704     1555.00000 0.6714       3.286109       0.328611
-102.934   0.4736328125  0.76392      443.00000 0.9095       0.904837       0.090477
  56.705   0.4736328125  0.91057     1555.00000 0.6638       3.362069       0.336206
-103.017   0.4782714844  0.76053      443.00000 0.9065       0.935397       0.093533
-113.119   0.4782714844  0.75586      446.50000 0.9027       0.972683       0.097267
  56.631   0.4782714844  0.91391     1555.00000 0.6561       3.439086       0.343908
-103.097   0.4829101562  0.75640      443.00000 0.9034       0.966563       0.096649
-113.040   0.4829101562  0.76190      446.50000 0.9004       0.996377       0.099637
  56.561   0.4829101562  0.91706     1555.00000 0.6483       3.517148       0.351714
-103.174   0.4875488281  0.75152      443.00000 0.9002       0.998334       0.099826
-112.961   0.4875488281  0.76776      446.50000 0.8980       1.020418       0.102041
  56.493   0.4875488281  0.92003     1555.00000 0.6404       3.596241       0.359623
-112.880   0.4921875000  0.77345      446.50000 0.8955       1.044803       0.104479
  56.428   0.4921875000  0.92283     1555.00000 0.6324       3.676351       0.367634
-112.799   0.4968261719  0.77898      446.50000 0.8930       1.069530       0.106952
  56.366   0.4968261719  0.92548     1555.00000 0.6243       3.757460       0.375745
-112.718   0.5014648438  0.78438      446.50000 0.8905       1.094593       0.109458
  56.306   0.5014648438  0.92798     1555.00000 0.6160       3.839551       0.383954
2009   7 10  9  1 350
   2.834   0.1303710938  0.75390      770.00000 0.7438       2.562331       0.256233
   1.928   0.1535644531  0.87358      769.50000 0.7946       2.053814       0.205354
   1.577   0.1582031250  0.85588      769.50000 0.8042       1.958364       0.195816
  -0.002   0.1582031250  0.85814      770.00000 0.8016       1.984288       0.198422
   1.292   0.1628417969  0.82368      769.50000 0.8133       1.867076       0.186693
  -0.042   0.1628417969  0.82414      770.00000 0.8109       1.891209       0.189117
   1.053   0.1674804688  0.76207      769.50000 0.8219       1.781247       0.178116
  -0.026   0.1674804688  0.76175      770.00000 0.8195       1.804618       0.180460
 -76.077   0.2834472656  0.81639      631.00000 0.9785       0.215307       0.021531
 -84.436   0.2834472656  0.84301      631.50000 0.9575       0.425073       0.042507
 -77.208   0.2880859375  0.82320      631.00000 0.9788       0.211508       0.021151
 -85.037   0.2880859375  0.84682      631.50000 0.9569       0.430985       0.043098
 -78.249   0.2927246094  0.82865      631.00000 0.9793       0.206689       0.020669
 -85.574   0.2927246094  0.84946      631.50000 0.9564       0.436292       0.043629
 -79.219   0.2973632812  0.83278      631.00000 0.9799       0.200878       0.020088
 -86.054   0.2973632812  0.85096      631.50000 0.9559       0.440998       0.044099
 -80.138   0.3020019531  0.88759      631.00000 0.9806       0.194110       0.019411
 -86.485   0.3020019531  0.91002      631.50000 0.9555       0.445113       0.044511
 -81.026   0.3066406250  0.88817      631.00000 0.9814       0.186424       0.018642
 -86.873   0.3066406250  0.90901      631.50000 0.9551       0.448643       0.044864
 -81.900   0.3112792969  0.88601      631.00000 0.9822       0.177864       0.017786
 -87.223   0.3112792969  0.90534      631.50000 0.9548       0.451596       0.045159
 -82.783   0.3159179688  0.87886      631.00000 0.9832       0.168477       0.016848
 -87.541   0.3159179688  0.89668      631.50000 0.9546       0.453982       0.045397
 -83.696   0.3205566406  0.86114      631.00000 0.9842       0.158315       0.015831
 -87.829   0.3205566406  0.87704      631.50000 0.9544       0.455812       0.045580
 -84.668   0.3251953125  0.84428      631.00000 0.9853       0.147429       0.014743
 -88.093   0.3251953125  0.84837      631.50000 0.9543       0.457099       0.045709
 -85.734   0.3298339844  0.88117      631.00000 0.9864       0.135876       0.013588
 -88.335   0.3298339844  0.88309      631.50000 0.9542       0.457854       0.045784
 -86.945   0.3344726562  0.94892      631.00000 0.9876       0.123716       0.012372
 -88.558   0.3344726562  0.95079      631.50000 0.9542       0.458096       0.045808
 -88.374   0.3391113281  0.95844      631.00000 0.9889       0.111012       0.011101
 -88.765   0.3391113281  0.96047      631.50000 0.9542       0.457840       0.045783
 -90.131   0.3437500000  0.93399      631.00000 0.9902       0.097834       0.009783
 -88.959   0.3437500000  0.93604      631.50000 0.9543       0.457106       0.045709
 -92.403   0.3483886719  0.97303      631.00000 0.9916       0.084267       0.008427
 -89.140   0.3483886719  0.97336      631.50000 0.9544       0.455913       0.045590
 -95.527   0.3530273438  0.96597      631.00000 0.9930       0.070420       0.007042
 -89.311   0.3530273438  0.96643      631.50000 0.9546       0.454282       0.045426
-100.172   0.3576660156  0.95952      631.00000 0.9944       0.056468       0.005647
 -89.474   0.3576660156  0.96022      631.50000 0.9548       0.452237       0.045222
-107.846   0.3623046875  0.94693      631.00000 0.9957       0.042761       0.004276
 -89.629   0.3623046875  0.94800      631.50000 0.9550       0.449802       0.044978
-122.392   0.3669433594  0.91392      631.00000 0.9970       0.030200       0.003020
 -89.778   0.3669433594  0.91554      631.50000 0.9553       0.446999       0.044698
-152.454   0.3715820312  0.84625      631.00000 0.9978       0.021650       0.002165
 -89.923   0.3715820312  0.84821      631.50000 0.9556       0.443854       0.044383
 165.502   0.3762207031  0.82894      631.00000 0.9977       0.022878       0.002288
 -90.063   0.3762207031  0.83037      631.50000 0.9560       0.440391       0.044036
 139.116   0.3808593750  0.85141      631.00000 0.9967       0.033120       0.003312
 -90.200   0.3808593750  0.85357      631.50000 0.9563       0.436635       0.043661
 126.394   0.3854980469  0.88159      631.00000 0.9953       0.046974       0.004697
 -90.334   0.3854980469  0.88370      631.50000 0.9567       0.432610       0.043258
 119.523   0.3901367188  0.89752      631.00000 0.9938       0.062174       0.006217
 -90.466   0.3901367188  0.89995      631.50000 0.9572       0.428340       0.042831
 115.303   0.3947753906  0.90561      631.00000 0.9922       0.078007       0.007801
 -90.597   0.3947753906  0.90846      631.50000 0.9576       0.423849       0.042381
 112.453   0.3994140625  0.90948      631.00000 0.9906       0.094194       0.009419
 -90.727   0.3994140625  0.91278      631.50000 0.9581       0.419157       0.041912
 110.393   0.4040527344  0.91083      631.00000 0.9889       0.110605       0.011060
 -90.856   0.4040527344  0.91461      631.50000 0.9586       0.414287       0.041425
 108.827   0.4086914062  0.91050      631.00000 0.9873       0.127167       0.012717
 -90.984   0.4086914062  0.91477      631.50000 0.9591       0.409259       0.040922
  95.317   0.4086914062  0.76287     3756.00000 0.9108       0.892408       0.089241
 107.588   0.4133300781  0.90886      631.00000 0.9856       0.143835       0.014383
 -91.112   0.4133300781  0.91366      631.50000 0.9596       0.404091       0.040405
  95.143   0.4133300781  0.78901     3756.00000 0.9084       0.915845       0.091584
 106.577   0.4179687500  0.90842      631.00000 0.9839       0.160577       0.016058
 -91.240   0.4179687500  0.90349      631.50000 0.9601       0.398802       0.039876
  94.982   0.4179687500  0.84051     3756.00000 0.9060       0.939671       0.093967
 105.732   0.4226074219  0.90478      631.00000 0.9823       0.177371       0.017737
 -91.368   0.4226074219  0.89982      631.50000 0.9607       0.393407       0.039336
  94.832   0.4226074219  0.85451     3756.00000 0.9036       0.963885       0.096388
 105.010   0.4272460938  0.89980      631.00000 0.9806       0.194200       0.019420
 -91.497   0.4272460938  0.89482      631.50000 0.9612       0.387923       0.038787
  94.692   0.4272460938  0.86574     3756.00000 0.9012       0.988489       0.098849
 104.382   0.4318847656  0.89317      631.00000 0.9789       0.211052       0.021105
  94.561   0.4318847656  0.87514     3756.00000 0.8987       1.013481       0.101348
 103.829   0.4365234375  0.88436      631.00000 0.9772       0.227917       0.022791
 -76.601   0.4365234375  0.76403     3751.00000 0.9506       0.493679       0.049367
  94.439   0.4365234375  0.88321     3756.00000 0.8961       1.038864       0.103886
 103.333   0.4411621094  0.87245      631.00000 0.9755       0.244788       0.024478
 -77.048   0.4411621094  0.77714     3751.00000 0.9492       0.507509       0.050750
  94.326   0.4411621094  0.89028     3756.00000 0.8935       1.064636       0.106464
 102.886   0.4458007812  0.85585      631.00000 0.9738       0.261659       0.026165
 -77.467   0.4458007812  0.78903     3751.00000 0.9478       0.521709       0.052170
  94.220   0.4458007812  0.89653     3756.00000 0.8909       1.090798       0.109080
 102.477   0.4504394531  0.83190      631.00000 0.9721       0.278527       0.027852
 -77.862   0.4504394531  0.79980     3751.00000 0.9464       0.536277       0.053627
  94.121   0.4504394531  0.90211     3756.00000 0.8883       1.117349       0.111735
 102.101   0.4550781250  0.79669      631.00000 0.9705       0.295390       0.029538
 -78.233   0.4550781250  0.80952     3751.00000 0.9449       0.551209       0.055120
  94.028   0.4550781250  0.90713     3756.00000 0.8856       1.144288       0.114429
 -78.582   0.4597167969  0.81825     3751.00000 0.9434       0.566501       0.056650
  93.941   0.4597167969  0.91165     3756.00000 0.8828       1.171615       0.117161
 101.426   0.4643554688  0.75227      631.00000 0.9671       0.329094       0.032908
 -78.911   0.4643554688  0.86416     3751.00000 0.9418       0.582151       0.058215
  93.860   0.4643554688  0.96102     3756.00000 0.8801       1.199329       0.119933
 101.119   0.4689941406  0.75587      631.00000 0.9654       0.345936       0.034592
 -79.220   0.4689941406  0.86725     3751.00000 0.9402       0.598156       0.059815
  93.783   0.4689941406  0.96382     3756.00000 0.8773       1.227428       0.122743
 100.830   0.4736328125  0.79393      631.00000 0.9637       0.362773       0.036275
 -25.788   0.4736328125  0.77027     3123.00000 0.8964       1.036371       0.103636
 -79.512   0.4736328125  0.86982     3751.00000 0.9385       0.614514       0.061451
  93.711   0.4736328125  0.96632     3756.00000 0.8744       1.255913       0.125591
 100.556   0.4782714844  0.83538      631.00000 0.9620       0.379605       0.037958
 -91.566   0.4782714844  0.75061     3002.50000 0.8494       1.505656       0.150565
 -25.908   0.4782714844  0.78521     3123.00000 0.8938       1.061653       0.106164
  93.644   0.4782714844  0.96856     3756.00000 0.8715       1.284781       0.128478
 100.295   0.4829101562  0.86218      631.00000 0.9604       0.396436       0.039641
 -91.564   0.4829101562  0.75144     3002.50000 0.8459       1.541147       0.154114
 -26.022   0.4829101562  0.79175     3123.00000 0.8913       1.087227       0.108721
  93.580   0.4829101562  0.97058     3756.00000 0.8686       1.314031       0.131403
 100.045   0.4875488281  0.87732      631.00000 0.9587       0.413265       0.041323
