 144.580   0.1071777344  0.99677       37.00000 0.8824       1.176206       0.117620
 144.589   0.1071777344  0.99669       37.50000 0.8812       1.188123       0.118811
 144.665   0.1071777344  0.99659       38.00000 0.8800       1.199564       0.119954
 144.810   0.1071777344  0.99649       38.50000 0.8790       1.210165       0.121013
 145.024   0.1071777344  0.99640       39.00000 0.8780       1.219578       0.121953
 145.301   0.1071777344  0.99635       39.50000 0.8773       1.227454       0.122739
 145.630   0.1071777344  0.99633       40.00000 0.8767       1.233448       0.123338
 145.996   0.1071777344  0.99635       40.50000 0.8763       1.237215       0.123714
 146.376   0.1071777344  0.99639       41.00000 0.8762       1.238422       0.123835
 146.748   0.1071777344  0.99643       41.50000 0.8763       1.236773       0.123671
 147.084   0.1071777344  0.99644       42.00000 0.8768       1.232041       0.123199
 147.360   0.1071777344  0.99639       42.50000 0.8776       1.224113       0.122407
 147.556   0.1071777344  0.99626       43.00000 0.8787       1.213022       0.121300
 147.655   0.1071777344  0.99601       43.50000 0.8801       1.198988       0.119897
 147.650   0.1071777344  0.99565       44.00000 0.8818       1.182412       0.118241
 147.543   0.1071777344  0.99516       44.50000 0.8836       1.163874       0.116387
 147.342   0.1071777344  0.99457       45.00000 0.8856       1.144091       0.114409
 147.063   0.1071777344  0.99388       45.50000 0.8876       1.123865       0.112386
 146.730   0.1071777344  0.99314       46.00000 0.8896       1.104026       0.110402
 146.366   0.1071777344  0.99237       46.50000 0.8915       1.085384       0.108537
 145.996   0.1071777344  0.99162       47.00000 0.8931       1.068689       0.106867
 145.646   0.1071777344  0.99091       47.50000 0.8945       1.054599       0.105457
 145.333   0.1071777344  0.99027       48.00000 0.8956       1.043671       0.104364
 145.071   0.1071777344  0.98973       48.50000 0.8964       1.036346       0.103632
 144.868   0.1071777344  0.98929       49.00000 0.8967       1.032957       0.103293
 144.724   0.1071777344  0.98896       49.50000 0.8966       1.033712       0.103369
 144.635   0.1071777344  0.98874       50.00000 0.8961       1.038689       0.103867
 144.591   0.1071777344  0.98860       50.50000 0.8952       1.047815       0.104780
 144.582   0.1071777344  0.98855       51.00000 0.8939       1.060840       0.106083
 144.595   0.1071777344  0.98854       51.50000 0.8923       1.077302       0.107730
 144.621   0.1071777344  0.98857       52.00000 0.8904       1.096494       0.109649
 144.650   0.1071777344  0.98861       52.50000 0.8883       1.117432       0.111743
 144.675   0.1071777344  0.98864       53.00000 0.8861       1.138865       0.113886
 144.695   0.1071777344  0.98866       53.50000 0.8841       1.159304       0.115929
 144.704   0.1071777344  0.98865       54.00000 0.8823       1.177135       0.117712
 144.703   0.1071777344  0.98862       54.50000 0.8809       1.190780       0.119075
 144.688   0.1071777344  0.98856       55.00000 0.8801       1.198907       0.119886
 144.658   0.1071777344  0.98848       55.50000 0.8799       1.200644       0.120059
 144.607   0.1071777344  0.98839       56.00000 0.8804       1.195729       0.119566
 144.531   0.1071777344  0.98829       56.50000 0.8816       1.184558       0.118448
 144.424   0.1071777344  0.98818       57.00000 0.8832       1.168120       0.116803
 144.282   0.1071777344  0.98806       57.50000 0.8852       1.147822       0.114773
 144.101   0.1071777344  0.98793       58.00000 0.8875       1.125287       0.112520
 143.879   0.1071777344  0.98779       58.50000 0.8898       1.102159       0.110207
 143.618   0.1071777344  0.98765       59.00000 0.8920       1.079956       0.107988
 143.320   0.1071777344  0.98750       59.50000 0.8940       1.059988       0.105992
 142.989   0.1071777344  0.98735       60.00000 0.8957       1.043322       0.104327
 142.630   0.1071777344  0.98724       60.50000 0.8969       1.030778       0.103073
 142.248   0.1071777344  0.98716       61.00000 0.8977       1.022947       0.102291
 141.847   0.1071777344  0.98714       61.50000 0.8980       1.020195       0.102017
 141.432   0.1071777344  0.98719       62.00000 0.8977       1.022668       0.102265
 141.005   0.1071777344  0.98732       62.50000 0.8970       1.030268       0.103026
 140.569   0.1071777344  0.98752       63.00000 0.8957       1.042630       0.104263
 140.129   0.1071777344  0.98780       63.50000 0.8941       1.059090       0.105909
 139.692   0.1071777344  0.98814       64.00000 0.8921       1.078660       0.107866
 139.269   0.1071777344  0.98851       64.50000 0.8900       1.100059       0.110006
 138.872   0.1071777344  0.98891       65.00000 0.8878       1.121770       0.112177
 138.517   0.1071777344  0.98931       65.50000 0.8858       1.142180       0.114218
 138.222   0.1071777344  0.98971       66.00000 0.8840       1.159757       0.115976
 138.002   0.1071777344  0.99008       66.50000 0.8827       1.173244       0.117324
 137.873   0.1071777344  0.99043       67.00000 0.8818       1.181820       0.118182
 137.845   0.1071777344  0.99074       67.50000 0.8815       1.185189       0.118519
 137.923   0.1071777344  0.99102       68.00000 0.8816       1.183579       0.118358
 138.106   0.1071777344  0.99127       68.50000 0.8822       1.177660       0.117766
 138.389   0.1071777344  0.99149       69.00000 0.8832       1.168413       0.116841
 138.760   0.1071777344  0.99168       69.50000 0.8843       1.156979       0.115697
 139.201   0.1071777344  0.99185       70.00000 0.8855       1.144540       0.114453
 139.690   0.1071777344  0.99201       70.50000 0.8868       1.132215       0.113220
 140.201   0.1071777344  0.99215       71.00000 0.8879       1.121000       0.112098
 140.706   0.1071777344  0.99230       71.50000 0.8888       1.111740       0.111171
 141.177   0.1071777344  0.99245       72.00000 0.8895       1.105110       0.110508
 141.585   0.1071777344  0.99261       72.50000 0.8898       1.101623       0.110159
 141.906   0.1071777344  0.99278       73.00000 0.8898       1.101633       0.110160
 142.121   0.1071777344  0.99296       73.50000 0.8895       1.105344       0.110531
 142.217   0.1071777344  0.99317       74.00000 0.8887       1.112816       0.111279
 142.189   0.1071777344  0.99339       74.50000 0.8876       1.123974       0.112395
 142.040   0.1071777344  0.99363       75.00000 0.8861       1.138610       0.113859
 141.780   0.1071777344  0.99389       75.50000 0.8844       1.156391       0.115638
 141.427   0.1071777344  0.99417       76.00000 0.8823       1.176864       0.117685
 141.001   0.1071777344  0.99446       76.50000 0.8801       1.199467       0.119946
 140.527   0.1071777344  0.99476       77.00000 0.8776       1.223539       0.122353
 140.030   0.1071777344  0.99507       77.50000 0.8752       1.248332       0.124833
 139.534   0.1071777344  0.99537       78.00000 0.8727       1.273033       0.127303
 139.063   0.1071777344  0.99567       78.50000 0.8703       1.296775       0.129677
 138.635   0.1071777344  0.99594       79.00000 0.8681       1.318670       0.131867
 138.267   0.1071777344  0.99619       79.50000 0.8662       1.337841       0.133784
 137.971   0.1071777344  0.99640       80.00000 0.8647       1.353468       0.135346
 137.758   0.1071777344  0.99658       80.50000 0.8635       1.364845       0.136484
 137.630   0.1071777344  0.99671       81.00000 0.8629       1.371440       0.137143
 137.590   0.1071777344  0.99680       81.50000 0.8627       1.372955       0.137295
 137.633   0.1071777344  0.99685       82.00000 0.8631       1.369368       0.136936
 137.751   0.1071777344  0.99685       82.50000 0.8639       1.360951       0.136094
 137.935   0.1071777344  0.99681       83.00000 0.8652       1.348246       0.134823
 138.169   0.1071777344  0.99673       83.50000 0.8668       1.332021       0.133201
 138.438   0.1071777344  0.99661       84.00000 0.8687       1.313195       0.131318
 138.724   0.1071777344  0.99645       84.50000 0.8707       1.292761       0.129275
 139.008   0.1071777344  0.99626       85.00000 0.8728       1.271715       0.127170
 139.272   0.1071777344  0.99605       85.50000 0.8749       1.250999       0.125099
 139.498   0.1071777344  0.99582       86.00000 0.8769       1.231461       0.123145
 139.672   0.1071777344  0.99560       86.50000 0.8786       1.213842       0.121383
 139.783   0.1071777344  0.99539       87.00000 0.8801       1.198769       0.119876
 139.822   0.1071777344  0.99522       87.50000 0.8813       1.186758       0.118675
 139.787   0.1071777344  0.99508       88.00000 0.8822       1.178223       0.117822
 139.679   0.1071777344  0.99499       88.50000 0.8827       1.173473       0.117347
 139.505   0.1071777344  0.99494       89.00000 0.8827       1.172721       0.117272
 139.275   0.1071777344  0.99493       89.50000 0.8824       1.176071       0.117607
 139.001   0.1071777344  0.99495       90.00000 0.8816       1.183512       0.118351
 138.701   0.1071777344  0.99497       90.50000 0.8805       1.194904       0.119490
 138.388   0.1071777344  0.99499       91.00000 0.8790       1.209966       0.120997
 138.079   0.1071777344  0.99498       91.50000 0.8772       1.228261       0.122826
 137.788   0.1071777344  0.99495       92.00000 0.8751       1.249178       0.124918
 137.527   0.1071777344  0.99491       92.50000 0.8728       1.271923       0.127192
 137.305   0.1071777344  0.99486       93.00000 0.8704       1.295510       0.129551
 137.128   0.1071777344  0.99483       93.50000 0.8681       1.318770       0.131877
 137.002   0.1071777344  0.99484       94.00000 0.8660       1.340377       0.134038
 136.927   0.1071777344  0.99490       94.50000 0.8641       1.358921       0.135892
 136.902   0.1071777344  0.99501       95.00000 0.8627       1.373003       0.137300
 136.926   0.1071777344  0.99515       95.50000 0.8619       1.381386       0.138139
 134.982   0.1071777344  0.99340      106.50000 0.8767       1.233008       0.123286
 135.180   0.1071777344  0.99355      107.00000 0.8751       1.249503       0.124938
 135.531   0.1071777344  0.99372      107.50000 0.8737       1.262805       0.126270
 136.032   0.1071777344  0.99390      108.00000 0.8728       1.271741       0.127166
 135.058   0.1071777344  0.99197      118.50000 0.8770       1.230140       0.122999
 134.944   0.1071777344  0.99192      119.00000 0.8741       1.259279       0.125915
 135.019   0.1071777344  0.99183      119.50000 0.8713       1.286790       0.128668
 135.267   0.1071777344  0.99171      120.00000 0.8689       1.310945       0.131085
 135.662   0.1071777344  0.99158      120.50000 0.8670       1.330035       0.132996
 136.177   0.1071777344  0.99147      121.00000 0.8658       1.342525       0.134246
 136.777   0.1071777344  0.99137      121.50000 0.8653       1.347234       0.134717
 137.427   0.1071777344  0.99132      122.00000 0.8657       1.343518       0.134346
 135.878   0.1071777344  0.98928      130.00000 0.8933       1.066862       0.106683
 135.326   0.1071777344  0.98939      130.50000 0.8916       1.084008       0.108398
 134.888   0.1071777344  0.98961      131.00000 0.8894       1.105729       0.110571
 134.588   0.1071777344  0.98988      131.50000 0.8868       1.131534       0.113153
 134.440   0.1071777344  0.99016      132.00000 0.8839       1.160821       0.116082
 134.452   0.1071777344  0.99037      132.50000 0.8807       1.192855       0.119286
 134.627   0.1071777344  0.99044      133.00000 0.8773       1.226721       0.122672
 134.957   0.1071777344  0.99029      133.50000 0.8739       1.261279       0.126127
 135.427   0.1071777344  0.98990      134.00000 0.8705       1.295143       0.129513
 136.014   0.1071777344  0.98927      134.50000 0.8673       1.326696       0.132668
 136.690   0.1071777344  0.98845      135.00000 0.8646       1.354160       0.135414
 137.422   0.1071777344  0.98751      135.50000 0.8624       1.375750       0.137572
 138.173   0.1071777344  0.98655      136.00000 0.8610       1.389884       0.138986
 134.480   0.1071777344  0.98302      145.00000 0.8991       1.008836       0.100881
 133.809   0.1071777344  0.98296      145.50000 0.8984       1.015646       0.101563
 133.314   0.1071777344  0.98288      146.00000 0.8973       1.027392       0.102739
 133.021   0.1071777344  0.98276      146.50000 0.8957       1.043376       0.104338
 132.939   0.1071777344  0.98259      147.00000 0.8937       1.062811       0.106281
 133.067   0.1071777344  0.98234      147.50000 0.8915       1.084871       0.108486
 133.395   0.1071777344  0.98204      148.00000 0.8891       1.108755       0.110872
 133.903   0.1071777344  0.98170      148.50000 0.8866       1.133720       0.113366
 134.571   0.1071777344  0.98135      149.00000 0.8841       1.159114       0.115903
 135.377   0.1071777344  0.98102      149.50000 0.8816       1.184387       0.118427
 136.296   0.1071777344  0.98074      150.00000 0.8791       1.209108       0.120896
 137.305   0.1071777344  0.98052      150.50000 0.8767       1.232965       0.123279
 138.378   0.1071777344  0.98038      151.00000 0.8744       1.255778       0.125559
 139.489   0.1071777344  0.98033      151.50000 0.8723       1.277500       0.127730
 140.607   0.1071777344  0.98035      152.00000 0.8702       1.298218       0.129802
 141.697   0.1071777344  0.98042      152.50000 0.8682       1.318156       0.131797
 142.721   0.1071777344  0.98053      153.00000 0.8663       1.337654       0.133749
 143.637   0.1071777344  0.98064      153.50000 0.8643       1.357154       0.135702
 144.402   0.1071777344  0.98075      154.00000 0.8623       1.377157       0.137705
 144.973   0.1071777344  0.98081      154.50000 0.8602       1.398176       0.139810
 145.316   0.1071777344  0.98084      155.00000 0.8579       1.420674       0.142062
 145.402   0.1071777344  0.98083      155.50000 0.8555       1.444993       0.144496
 145.219   0.1071777344  0.98079      156.00000 0.8529       1.471264       0.147125
 144.771   0.1071777344  0.98074      156.50000 0.8501       1.499318       0.149931
 144.079   0.1071777344  0.98070      157.00000 0.8471       1.528575       0.152857
 143.181   0.1071777344  0.98067      157.50000 0.8442       1.557961       0.155796
 142.131   0.1071777344  0.98065      158.00000 0.8414       1.585864       0.158586
 140.991   0.1071777344  0.98060      158.50000 0.8390       1.610189       0.161019
 139.824   0.1071777344  0.98043      159.00000 0.8371       1.628545       0.162854
 138.693   0.1071777344  0.98006      159.50000 0.8361       1.638587       0.163857
 134.384   0.1071777344  0.91435      166.50000 0.8767       1.232757       0.123258
 134.394   0.1071777344  0.90846      167.00000 0.8771       1.229123       0.122899
 134.397   0.1071777344  0.90327      167.50000 0.8767       1.233527       0.123343
 134.737   0.1071777344  0.90982      175.50000 0.7461       2.538549       0.253853
 134.666   0.1071777344  0.91226      176.00000 0.7483       2.517267       0.251725
 103.107   0.1071777344  0.91233      255.00000 0.8795       1.204628       0.120452
 102.657   0.1071777344  0.91299      255.50000 0.8832       1.168045       0.116801
 102.530   0.1071777344  0.91271      256.00000 0.8857       1.142986       0.114298
 117.624   0.1071777344  0.95518      294.50000 0.8215       1.785500       0.178549
 118.551   0.1071777344  0.95344      295.00000 0.8204       1.795543       0.179554
 119.416   0.1071777344  0.95225      295.50000 0.8205       1.794911       0.179491
 120.158   0.1071777344  0.95162      296.00000 0.8218       1.781804       0.178180
 120.712   0.1071777344  0.95146      296.50000 0.8244       1.755653       0.175563
 121.022   0.1071777344  0.95166      297.00000 0.8283       1.717560       0.171749
 127.621   0.1071777344  0.92196      312.00000 0.7985       2.014746       0.201471
 128.496   0.1071777344  0.91945      312.50000 0.8000       1.999993       0.199999
 107.450   0.1071777344  0.89568      320.50000 0.8803       1.197272       0.119726
 106.128   0.1071777344  0.89083      321.00000 0.8803       1.197297       0.119730
 105.004   0.1071777344  0.88534      321.50000 0.8799       1.201299       0.120129
 104.099   0.1071777344  0.87928      322.00000 0.8791       1.208855       0.120879
  97.694   0.1071777344  0.87071      340.00000 0.8984       1.015737       0.101573
  96.359   0.1071777344  0.86756      340.50000 0.9014       0.985706       0.098567
  95.191   0.1071777344  0.86450      341.00000 0.9040       0.960123       0.096004
  94.656   0.1071777344  0.94226      359.00000 0.9072       0.928017       0.092801
  94.263   0.1071777344  0.94208      359.50000 0.9075       0.925437       0.092541
  94.246   0.1071777344  0.94188      360.00000 0.9067       0.932835       0.093277
  94.602   0.1071777344  0.94171      360.50000 0.9049       0.950666       0.095055
 104.896   0.1071777344  0.94366      366.00000 0.8300       1.699625       0.169953
 105.031   0.1071777344  0.94365      366.50000 0.8252       1.747609       0.174755
 105.016   0.1071777344  0.94403      367.00000 0.8224       1.775601       0.177557
 103.458   0.1071777344  0.97844      376.50000 0.8738       1.262296       0.126221
 102.785   0.1071777344  0.97825      377.00000 0.8710       1.290544       0.129046
 101.980   0.1071777344  0.97822      377.50000 0.8676       1.324451       0.132437
 101.074   0.1071777344  0.97841      378.00000 0.8638       1.362259       0.136218
 100.109   0.1071777344  0.97883      378.50000 0.8598       1.401930       0.140185
  99.126   0.1071777344  0.97945      379.00000 0.8559       1.441389       0.144131
  98.167   0.1071777344  0.98019      379.50000 0.8521       1.478788       0.147871
  97.273   0.1071777344  0.98098      380.00000 0.8487       1.512754       0.151268
  96.479   0.1071777344  0.98170      380.50000 0.8458       1.542519       0.154245
  95.815   0.1071777344  0.98228      381.00000 0.8432       1.567948       0.156787
  95.307   0.1071777344  0.98265      381.50000 0.8411       1.589437       0.158936
  94.972   0.1071777344  0.98279      382.00000 0.8392       1.607776       0.160769
  94.823   0.1071777344  0.98269      382.50000 0.8376       1.623978       0.162387
  94.861   0.1071777344  0.98236      383.00000 0.8361       1.639137       0.163901
  95.083   0.1071777344  0.98179      383.50000 0.8346       1.654316       0.165416
  95.476   0.1071777344  0.98095      384.00000 0.8330       1.670473       0.167028
 157.832   0.1071777344  0.75337      578.50000 0.8590       1.410143       0.141009
 160.894   0.1071777344  0.75408      579.00000 0.8670       1.330128       0.133012
 163.933   0.1071777344  0.75461      579.50000 0.8756       1.243958       0.124395
 100.323   0.1071777344  0.76428      842.00000 0.8967       1.033322       0.103332
  98.825   0.1071777344  0.77453      842.50000 0.8911       1.088651       0.108865
  97.844   0.1071777344  0.78249      843.00000 0.8859       1.140507       0.114050
  97.375   0.1071777344  0.78776      843.50000 0.8814       1.185855       0.118585
 152.208   0.1071777344  0.92162      963.00000 0.8709       1.290997       0.129099
 151.109   0.1071777344  0.92772      963.50000 0.8671       1.329033       0.132902
 150.053   0.1071777344  0.93222      964.00000 0.8645       1.354681       0.135466
 149.082   0.1071777344  0.93523      964.50000 0.8633       1.367393       0.136736
 148.235   0.1071777344  0.93685      965.00000 0.8633       1.367122       0.136708
 147.554   0.1071777344  0.93711      965.50000 0.8646       1.354268       0.135421
 147.075   0.1071777344  0.93612      966.00000 0.8670       1.329652       0.132959
 146.832   0.1071777344  0.93402      966.50000 0.8706       1.294508       0.129444
 146.855   0.1071777344  0.93106      967.00000 0.8750       1.250446       0.125037
 147.168   0.1071777344  0.92756      967.50000 0.8801       1.199407       0.119933
 147.790   0.1071777344  0.92387      968.00000 0.8857       1.143565       0.114348
 148.735   0.1071777344  0.92037      968.50000 0.8915       1.085233       0.108514
 150.006   0.1071777344  0.91736      969.00000 0.8973       1.026749       0.102665
 156.950   0.1071777344  0.91173      984.50000 0.9400       0.600458       0.060045
 159.698   0.1071777344  0.91175      985.00000 0.9427       0.573058       0.057306
 162.157   0.1071777344  0.91195      985.50000 0.9447       0.552657       0.055266
 164.206   0.1071777344  0.91233      986.00000 0.9461       0.539388       0.053939
 165.746   0.1071777344  0.91285      986.50000 0.9466       0.533734       0.053373
 166.712   0.1071777344  0.91343      987.00000 0.9463       0.536637       0.053664
 158.249   0.1071777344  0.92200     1005.00000 0.9307       0.692598       0.069258
 157.989   0.1071777344  0.91679     1005.50000 0.9317       0.682849       0.068284
 157.831   0.1071777344  0.91012     1006.00000 0.9319       0.681496       0.068150
 157.865   0.1071777344  0.90231     1006.50000 0.9310       0.689784       0.068978
 158.160   0.1071777344  0.89375     1007.00000 0.9291       0.708835       0.070882
 158.746   0.1071777344  0.88485     1007.50000 0.9260       0.739695       0.073964
 159.608   0.1071777344  0.87604     1008.00000 0.9217       0.783364       0.078326
 175.279   0.1071777344  0.90805     1024.50000 0.9438       0.561710       0.056171
 178.876   0.1071777344  0.90546     1025.00000 0.9387       0.613016       0.061301
-178.084   0.1071777344  0.90271     1025.50000 0.9324       0.676431       0.067643
-175.785   0.1071777344  0.89989     1026.00000 0.9250       0.750509       0.075050
-174.311   0.1071777344  0.89706     1026.50000 0.9166       0.833629       0.083361
 157.881   0.1071777344  0.82161     1040.50000 0.8777       1.223321       0.122326
 157.199   0.1071777344  0.82159     1041.00000 0.8747       1.252812       0.125277
 156.328   0.1071777344  0.82163     1041.50000 0.8720       1.280281       0.128024
 155.319   0.1071777344  0.82168     1042.00000 0.8698       1.301749       0.130170
 154.239   0.1071777344  0.82166     1042.50000 0.8687       1.313262       0.131317
 153.164   0.1071777344  0.82161     1043.00000 0.8689       1.311360       0.131121
 151.329   0.1071777344  0.79022     1059.50000 0.8234       1.766127       0.176612
 152.977   0.1071777344  0.78885     1060.00000 0.8214       1.785990       0.178596
 173.572   0.1071777344  0.76344     1070.00000 0.8372       1.628193       0.162819
 174.322   0.1071777344  0.76029     1070.50000 0.8353       1.647308       0.164730
 175.203   0.1071777344  0.75808     1071.00000 0.8331       1.668782       0.166876
 176.191   0.1071777344  0.75735     1071.50000 0.8309       1.690979       0.169095
 177.252   0.1071777344  0.75849     1072.00000 0.8288       1.711877       0.171183
 178.346   0.1071777344  0.76171     1072.50000 0.8271       1.729287       0.172924
 179.431   0.1071777344  0.76682     1073.00000 0.8259       1.741217       0.174118
-179.537   0.1071777344  0.77318     1073.50000 0.8254       1.746226       0.174620
-178.606   0.1071777344  0.77954     1074.00000 0.8256       1.743684       0.174367
-177.822   0.1071777344  0.78423     1074.50000 0.8266       1.733786       0.173378
-177.236   0.1071777344  0.78566     1075.00000 0.8283       1.717343       0.171734
-176.897   0.1071777344  0.78294     1075.50000 0.8305       1.695445       0.169544
-176.859   0.1071777344  0.77608     1076.00000 0.8331       1.669155       0.166913
 154.226   0.1118164062  0.96898        8.00000 0.8756       1.244178       0.124402
 154.364   0.1118164062  0.96965        8.50000 0.8739       1.261510       0.126137
 154.425   0.1118164062  0.97029        9.00000 0.8724       1.276274       0.127616
 154.419   0.1118164062  0.97091        9.50000 0.8713       1.287444       0.128734
 154.351   0.1118164062  0.97150       10.00000 0.8706       1.294082       0.129400
 154.224   0.1118164062  0.97205       10.50000 0.8705       1.295425       0.129535
 154.041   0.1118164062  0.97257       11.00000 0.8709       1.291015       0.129095
 153.800   0.1118164062  0.97305       11.50000 0.8719       1.280759       0.128071
 153.497   0.1118164062  0.97351       12.00000 0.8735       1.264968       0.126492
 153.128   0.1118164062  0.97394       12.50000 0.8756       1.244324       0.124428
 149.387   0.1118164062  0.97581       15.50000 0.8919       1.080817       0.108078
 148.542   0.1118164062  0.97600       16.00000 0.8943       1.057334       0.105730
 147.664   0.1118164062  0.97617       16.50000 0.8963       1.037170       0.103713
 146.773   0.1118164062  0.97632       17.00000 0.8979       1.020818       0.102078
 145.890   0.1118164062  0.97645       17.50000 0.8991       1.008637       0.100860
 145.038   0.1118164062  0.97658       18.00000 0.8999       1.000887       0.100085
 144.239   0.1118164062  0.97670       18.50000 0.9002       0.997739       0.099771
 143.516   0.1118164062  0.97767       19.00000 0.9001       0.999303       0.099928
 142.890   0.1118164062  0.97829       19.50000 0.8994       1.005629       0.100561
 142.380   0.1118164062  0.97865       20.00000 0.8983       1.016707       0.101669
 142.003   0.1118164062  0.97881       20.50000 0.8968       1.032441       0.103243
 141.772   0.1118164062  0.97884       21.00000 0.8947       1.052624       0.105261
 144.110   0.1118164062  0.97964       24.50000 0.8746       1.253663       0.125366
 144.789   0.1118164062  0.98014       25.00000 0.8726       1.274360       0.127435
 145.463   0.1118164062  0.98075       25.50000 0.8711       1.288512       0.128850
 146.100   0.1118164062  0.98145       26.00000 0.8705       1.295407       0.129539
 146.674   0.1118164062  0.98223       26.50000 0.8705       1.294956       0.129493
 147.162   0.1118164062  0.98308       27.00000 0.8712       1.287660       0.128762
 147.549   0.1118164062  0.98396       27.50000 0.8726       1.274495       0.127445
 147.827   0.1118164062  0.98488       28.00000 0.8743       1.256750       0.125669
 147.993   0.1118164062  0.98581       28.50000 0.8764       1.235870       0.123579
 148.049   0.1118164062  0.98674       29.00000 0.8787       1.213315       0.121322
 148.003   0.1118164062  0.98767       29.50000 0.8810       1.190461       0.119035
 147.867   0.1118164062  0.98858       30.00000 0.8832       1.168535       0.116842
 147.655   0.1118164062  0.98949       30.50000 0.8852       1.148572       0.114845
 147.386   0.1118164062  0.99038       31.00000 0.8869       1.131395       0.113128
 147.077   0.1118164062  0.99125       31.50000 0.8883       1.117599       0.111748
 146.745   0.1118164062  0.99207       32.00000 0.8893       1.107559       0.110745
 146.404   0.1118164062  0.99284       32.50000 0.8899       1.101433       0.110134
 146.067   0.1118164062  0.99352       33.00000 0.8901       1.099185       0.109911
 145.743   0.1118164062  0.99412       33.50000 0.8899       1.100602       0.110054
 145.437   0.1118164062  0.99460       34.00000 0.8895       1.105334       0.110529
 145.153   0.1118164062  0.99497       34.50000 0.8887       1.112922       0.111289
 144.897   0.1118164062  0.99522       35.00000 0.8877       1.122839       0.112282
 144.671   0.1118164062  0.99537       35.50000 0.8865       1.134529       0.113452
 144.482   0.1118164062  0.99544       36.00000 0.8853       1.147437       0.114744
 144.338   0.1118164062  0.99544       36.50000 0.8839       1.161040       0.116104
 144.249   0.1118164062  0.99540       37.00000 0.8825       1.174860       0.117486
 144.226   0.1118164062  0.99534       37.50000 0.8812       1.188480       0.118847
 144.281   0.1118164062  0.99530       38.00000 0.8798       1.201530       0.120150
 144.422   0.1118164062  0.99528       38.50000 0.8786       1.213684       0.121364
 144.654   0.1118164062  0.99530       39.00000 0.8775       1.224639       0.122458
 144.975   0.1118164062  0.99537       39.50000 0.8766       1.234090       0.123401
 145.376   0.1118164062  0.99549       40.00000 0.8758       1.241714       0.124162
 145.840   0.1118164062  0.99564       40.50000 0.8753       1.247153       0.124705
 146.339   0.1118164062  0.99582       41.00000 0.8750       1.250013       0.124991
 146.840   0.1118164062  0.99599       41.50000 0.8750       1.249884       0.124979
 147.307   0.1118164062  0.99612       42.00000 0.8754       1.246380       0.124630
 147.702   0.1118164062  0.99619       42.50000 0.8761       1.239200       0.123914
 147.992   0.1118164062  0.99618       43.00000 0.8772       1.228202       0.122817
 148.154   0.1118164062  0.99606       43.50000 0.8787       1.213469       0.121345
 148.173   0.1118164062  0.99583       44.00000 0.8805       1.195340       0.119533
 148.049   0.1118164062  0.99548       44.50000 0.8826       1.174421       0.117442
 147.792   0.1118164062  0.99503       45.00000 0.8848       1.151535       0.115153
 147.427   0.1118164062  0.99450       45.50000 0.8872       1.127658       0.112765
 146.984   0.1118164062  0.99390       46.00000 0.8896       1.103831       0.110382
 146.499   0.1118164062  0.99326       46.50000 0.8919       1.081088       0.108106
 146.008   0.1118164062  0.99258       47.00000 0.8940       1.060388       0.106036
 145.547   0.1118164062  0.99189       47.50000 0.8957       1.042582       0.104255
 145.143   0.1118164062  0.99120       48.00000 0.8972       1.028393       0.102835
 144.816   0.1118164062  0.99054       48.50000 0.8982       1.018410       0.101837
 144.576   0.1118164062  0.98991       49.00000 0.8987       1.013093       0.101306
 144.421   0.1118164062  0.98934       49.50000 0.8987       1.012773       0.101274
 144.344   0.1118164062  0.98884       50.00000 0.8982       1.017642       0.101762
 144.331   0.1118164062  0.98842       50.50000 0.8972       1.027737       0.102772
 144.362   0.1118164062  0.98808       51.00000 0.8957       1.042905       0.104290
 144.420   0.1118164062  0.98783       51.50000 0.8937       1.062751       0.106275
 144.489   0.1118164062  0.98765       52.00000 0.8913       1.086574       0.108657
 144.556   0.1118164062  0.98753       52.50000 0.8887       1.113301       0.111330
 144.613   0.1118164062  0.98745       53.00000 0.8859       1.141436       0.114143
 144.658   0.1118164062  0.98739       53.50000 0.8831       1.169061       0.116905
 144.688   0.1118164062  0.98732       54.00000 0.8806       1.193937       0.119392
 144.706   0.1118164062  0.98725       54.50000 0.8786       1.213717       0.121368
 144.710   0.1118164062  0.98716       55.00000 0.8774       1.226291       0.122624
 144.699   0.1118164062  0.98706       55.50000 0.8770       1.230157       0.123009
 144.670   0.1118164062  0.98697       56.00000 0.8775       1.224742       0.122466
 144.618   0.1118164062  0.98689       56.50000 0.8790       1.210521       0.121043
 144.534   0.1118164062  0.98682       57.00000 0.8811       1.188919       0.118882
 143.513   0.1118164062  0.98672       59.50000 0.8954       1.046357       0.104628
 143.194   0.1118164062  0.98675       60.00000 0.8975       1.024640       0.102458
 142.847   0.1118164062  0.98680       60.50000 0.8992       1.008269       0.100822
 142.478   0.1118164062  0.98689       61.00000 0.9002       0.997943       0.099791
 142.088   0.1118164062  0.98702       61.50000 0.9006       0.994117       0.099409
 141.680   0.1118164062  0.98721       62.00000 0.9003       0.997013       0.099700
 141.251   0.1118164062  0.98744       62.50000 0.8993       1.006596       0.100659
 140.800   0.1118164062  0.98770       63.00000 0.8977       1.022511       0.102251
 140.326   0.1118164062  0.98798       63.50000 0.8956       1.044009       0.104401
 139.835   0.1118164062  0.98827       64.00000 0.8930       1.069878       0.106988
 139.336   0.1118164062  0.98856       64.50000 0.8902       1.098420       0.109842
 138.846   0.1118164062  0.98884       65.00000 0.8872       1.127522       0.112752
 138.388   0.1118164062  0.98912       65.50000 0.8845       1.154847       0.115484
 137.989   0.1118164062  0.98938       66.00000 0.8822       1.178125       0.117812
 137.673   0.1118164062  0.98964       66.50000 0.8805       1.195497       0.119549
 137.464   0.1118164062  0.98988       67.00000 0.8794       1.205799       0.120580
 137.379   0.1118164062  0.99011       67.50000 0.8791       1.208708       0.120871
 137.430   0.1118164062  0.99033       68.00000 0.8795       1.204709       0.120471
 137.618   0.1118164062  0.99053       68.50000 0.8805       1.194918       0.119492
 137.937   0.1118164062  0.99071       69.00000 0.8819       1.180839       0.118084
 138.374   0.1118164062  0.99089       69.50000 0.8836       1.164123       0.116412
 138.908   0.1118164062  0.99106       70.00000 0.8854       1.146375       0.114636
 139.510   0.1118164062  0.99123       70.50000 0.8871       1.129044       0.112902
 140.149   0.1118164062  0.99141       71.00000 0.8887       1.113359       0.111333
 140.789   0.1118164062  0.99160       71.50000 0.8900       1.100317       0.110028
 141.390   0.1118164062  0.99180       72.00000 0.8909       1.090685       0.109065
 141.918   0.1118164062  0.99202       72.50000 0.8915       1.085026       0.108499
 142.339   0.1118164062  0.99226       73.00000 0.8916       1.083706       0.108367
 142.626   0.1118164062  0.99250       73.50000 0.8913       1.086917       0.108688
 142.763   0.1118164062  0.99276       74.00000 0.8905       1.094684       0.109465
 142.742   0.1118164062  0.99303       74.50000 0.8893       1.106872       0.110685
 142.568   0.1118164062  0.99329       75.00000 0.8877       1.123194       0.112317
 142.256   0.1118164062  0.99356       75.50000 0.8857       1.143223       0.114321
 141.827   0.1118164062  0.99383       76.00000 0.8834       1.166405       0.116639
 141.310   0.1118164062  0.99410       76.50000 0.8808       1.192077       0.119207
 140.736   0.1118164062  0.99436       77.00000 0.8781       1.219487       0.121948
 140.136   0.1118164062  0.99462       77.50000 0.8752       1.247810       0.124781
 139.540   0.1118164062  0.99488       78.00000 0.8724       1.276161       0.127616
 138.974   0.1118164062  0.99512       78.50000 0.8696       1.303605       0.130360
 138.462   0.1118164062  0.99534       79.00000 0.8671       1.329162       0.132916
 138.024   0.1118164062  0.99554       79.50000 0.8648       1.351827       0.135182
 137.674   0.1118164062  0.99571       80.00000 0.8629       1.370605       0.137060
 137.424   0.1118164062  0.99584       80.50000 0.8615       1.384571       0.138457
 137.280   0.1118164062  0.99594       81.00000 0.8607       1.392965       0.139296
 137.244   0.1118164062  0.99601       81.50000 0.8605       1.395286       0.139528
 137.312   0.1118164062  0.99604       82.00000 0.8609       1.391384       0.139137
 137.475   0.1118164062  0.99603       82.50000 0.8618       1.381515       0.138150
 137.720   0.1118164062  0.99600       83.00000 0.8634       1.366332       0.136632
 138.028   0.1118164062  0.99595       83.50000 0.8653       1.346814       0.134680
 138.379   0.1118164062  0.99588       84.00000 0.8676       1.324157       0.132414
 138.750   0.1118164062  0.99578       84.50000 0.8700       1.299642       0.129962
 139.117   0.1118164062  0.99566       85.00000 0.8725       1.274518       0.127450
 139.456   0.1118164062  0.99550       85.50000 0.8750       1.249924       0.124991
 139.746   0.1118164062  0.99531       86.00000 0.8773       1.226836       0.122682
 139.969   0.1118164062  0.99506       86.50000 0.8794       1.206066       0.120606
 140.110   0.1118164062  0.99477       87.00000 0.8812       1.188267       0.118826
 140.161   0.1118164062  0.99445       87.50000 0.8826       1.173961       0.117396
 140.118   0.1118164062  0.99412       88.00000 0.8836       1.163566       0.116356
 139.984   0.1118164062  0.99382       88.50000 0.8843       1.157407       0.115740
 139.768   0.1118164062  0.99358       89.00000 0.8844       1.155732       0.115573
 139.484   0.1118164062  0.99343       89.50000 0.8841       1.158698       0.115870
 139.150   0.1118164062  0.99341       90.00000 0.8834       1.166367       0.116637
 138.786   0.1118164062  0.99349       90.50000 0.8821       1.178681       0.117868
 138.412   0.1118164062  0.99368       91.00000 0.8805       1.195443       0.119544
 138.046   0.1118164062  0.99392       91.50000 0.8784       1.216289       0.121629
 137.704   0.1118164062  0.99416       92.00000 0.8759       1.240661       0.124066
 137.401   0.1118164062  0.99434       92.50000 0.8732       1.267772       0.126777
 137.146   0.1118164062  0.99442       93.00000 0.8703       1.296574       0.129657
 136.947   0.1118164062  0.99437       93.50000 0.8674       1.325727       0.132573
 136.810   0.1118164062  0.99421       94.00000 0.8646       1.353601       0.135360
 136.735   0.1118164062  0.99399       94.50000 0.8622       1.378326       0.137833
 136.722   0.1118164062  0.99375       95.00000 0.8602       1.397910       0.139791
 136.770   0.1118164062  0.99354       95.50000 0.8590       1.410457       0.141046
 134.269   0.1118164062  0.99051      106.50000 0.8757       1.242965       0.124280
 134.416   0.1118164062  0.99062      107.00000 0.8734       1.265672       0.126554
 134.766   0.1118164062  0.99074      107.50000 0.8716       1.284267       0.128417
 135.322   0.1118164062  0.99084      108.00000 0.8703       1.297074       0.129700
 134.224   0.1118164062  0.98795      119.50000 0.8698       1.302325       0.130222
 134.576   0.1118164062  0.98779      120.00000 0.8666       1.334231       0.133415
 135.109   0.1118164062  0.98755      120.50000 0.8640       1.360154       0.136009
 135.786   0.1118164062  0.98729      121.00000 0.8622       1.377872       0.137782
 136.564   0.1118164062  0.98702      121.50000 0.8614       1.385557       0.138551
 137.396   0.1118164062  0.98680      122.00000 0.8618       1.382108       0.138207
 135.382   0.1118164062  0.98358      130.00000 0.8956       1.044450       0.104441
 134.710   0.1118164062  0.98377      130.50000 0.8936       1.063903       0.106387
 134.180   0.1118164062  0.98424      131.00000 0.8912       1.088415       0.108840
 133.817   0.1118164062  0.98488      131.50000 0.8882       1.117534       0.111753
 133.638   0.1118164062  0.98558      132.00000 0.8849       1.150736       0.115074
 133.655   0.1118164062  0.98620      132.50000 0.8813       1.187382       0.118738
 133.868   0.1118164062  0.98661      133.00000 0.8773       1.226622       0.122662
 134.271   0.1118164062  0.98670      133.50000 0.8733       1.267317       0.126730
 134.848   0.1118164062  0.98642      134.00000 0.8692       1.307945       0.130792
 135.570   0.1118164062  0.98579      134.50000 0.8653       1.346568       0.134653
 136.404   0.1118164062  0.98485      135.00000 0.8619       1.380882       0.138084
 137.305   0.1118164062  0.98370      135.50000 0.8592       1.408416       0.140837
 138.228   0.1118164062  0.98245      136.00000 0.8573       1.426857       0.142681
 133.652   0.1118164062  0.97589      145.00000 0.9018       0.982144       0.098211
 132.796   0.1118164062  0.97587      145.50000 0.9009       0.991400       0.099138
 132.169   0.1118164062  0.97582      146.00000 0.8994       1.006467       0.100646
 131.804   0.1118164062  0.97570      146.50000 0.8974       1.026393       0.102639
 131.709   0.1118164062  0.97551      147.00000 0.8950       1.050103       0.105010
 131.876   0.1118164062  0.97526      147.50000 0.8924       1.076511       0.107649
 132.283   0.1118164062  0.97497      148.00000 0.8895       1.104589       0.110455
 132.901   0.1118164062  0.97468      148.50000 0.8867       1.133419       0.113334
 133.702   0.1118164062  0.97442      149.00000 0.8838       1.162213       0.116210
 134.655   0.1118164062  0.97423      149.50000 0.8810       1.190320       0.119017
 144.414   0.1118164062  0.97468      153.50000 0.8641       1.359033       0.135886
 145.361   0.1118164062  0.97475      154.00000 0.8624       1.376040       0.137591
 146.084   0.1118164062  0.97479      154.50000 0.8606       1.394337       0.139425
 146.529   0.1118164062  0.97482      155.00000 0.8585       1.414827       0.141478
 146.656   0.1118164062  0.97484      155.50000 0.8562       1.438320       0.143830
 146.443   0.1118164062  0.97488      156.00000 0.8535       1.465406       0.146540
 145.889   0.1118164062  0.97497      156.50000 0.8504       1.496319       0.149632
 145.019   0.1118164062  0.97513      157.00000 0.8469       1.530752       0.153075
 143.881   0.1118164062  0.97536      157.50000 0.8432       1.567677       0.156767
 142.546   0.1118164062  0.97567      158.00000 0.8395       1.605163       0.160516
 141.100   0.1118164062  0.97602      158.50000 0.8360       1.640317       0.164031
 139.632   0.1118164062  0.97636      159.00000 0.8331       1.669448       0.166945
 138.229   0.1118164062  0.97658      159.50000 0.8311       1.688531       0.168853
 135.053   0.1118164062  0.90307      167.00000 0.8838       1.161770       0.116164
 135.065   0.1118164062  0.89469      167.50000 0.8836       1.163658       0.116357
 134.973   0.1118164062  0.89278      175.50000 0.7251       2.748530       0.274853
 135.021   0.1118164062  0.89610      176.00000 0.7267       2.733499       0.273349
 100.482   0.1118164062  0.86938      255.00000 0.8879       1.121606       0.112149
  99.868   0.1118164062  0.86969      255.50000 0.8921       1.079028       0.107899
  99.586   0.1118164062  0.86938      256.00000 0.8953       1.047385       0.104738
 117.648   0.1118164062  0.94509      294.50000 0.8179       1.821067       0.182104
 118.795   0.1118164062  0.94251      295.00000 0.8161       1.839196       0.183918
 119.907   0.1118164062  0.94050      295.50000 0.8155       1.845130       0.184512
 120.900   0.1118164062  0.93909      296.00000 0.8165       1.835155       0.183516
 121.683   0.1118164062  0.93822      296.50000 0.8193       1.807176       0.180717
 129.190   0.1118164062  0.89718      312.00000 0.7862       2.138198       0.213812
 130.166   0.1118164062  0.89397      312.50000 0.7883       2.117469       0.211746
 105.788   0.1118164062  0.86640      320.50000 0.8836       1.163643       0.116361
 104.270   0.1118164062  0.86200      321.00000 0.8837       1.163334       0.116333
 102.964   0.1118164062  0.85675      321.50000 0.8833       1.167318       0.116731
 101.895   0.1118164062  0.85065      322.00000 0.8825       1.175243       0.117519
  95.272   0.1118164062  0.82968      340.00000 0.9026       0.973898       0.097390
  93.712   0.1118164062  0.82605      340.50000 0.9058       0.942263       0.094225
  92.285   0.1118164062  0.82229      341.00000 0.9085       0.914571       0.091451
  91.048   0.1118164062  0.81854      341.50000 0.9109       0.891273       0.089114
  91.811   0.1118164062  0.91631      359.00000 0.9139       0.860659       0.086065
  91.443   0.1118164062  0.91747      359.50000 0.9142       0.858254       0.085822
  91.565   0.1118164062  0.91887      360.00000 0.9134       0.866435       0.086636
 105.686   0.1118164062  0.92869      366.00000 0.8220       1.780076       0.177998
 105.725   0.1118164062  0.92917      366.50000 0.8163       1.837138       0.183709
 105.571   0.1118164062  0.93058      367.00000 0.8132       1.868331       0.186832
 104.168   0.1118164062  0.96932      376.50000 0.8778       1.222179       0.122208
 103.470   0.1118164062  0.96986      377.00000 0.8740       1.260247       0.126016
 102.588   0.1118164062  0.97081      377.50000 0.8694       1.305651       0.130557
 101.561   0.1118164062  0.97210      378.00000 0.8644       1.355689       0.135562
 100.442   0.1118164062  0.97361      378.50000 0.8593       1.407101       0.140703
  99.284   0.1118164062  0.97515      379.00000 0.8544       1.456530       0.145647
  98.142   0.1118164062  0.97657      379.50000 0.8499       1.501082       0.150102
  97.064   0.1118164062  0.97773      380.00000 0.8461       1.538783       0.153873
  96.095   0.1118164062  0.97853      380.50000 0.8431       1.568796       0.156874
  95.271   0.1118164062  0.97896      381.00000 0.8409       1.591352       0.159130
  94.623   0.1118164062  0.97909      381.50000 0.8393       1.607503       0.160744
  94.174   0.1118164062  0.97901      382.00000 0.8381       1.618797       0.161873
  93.941   0.1118164062  0.97879      382.50000 0.8373       1.626984       0.162690
  93.929   0.1118164062  0.97853      383.00000 0.8366       1.633805       0.163370
  94.136   0.1118164062  0.97824      383.50000 0.8359       1.640862       0.164072
  94.549   0.1118164062  0.97790      384.00000 0.8351       1.649553       0.164937
  97.146   0.1118164062  0.75863      842.50000 0.8949       1.050690       0.105068
  96.048   0.1118164062  0.76639      843.00000 0.8897       1.102698       0.110269
 152.693   0.1118164062  0.89834      963.00000 0.8660       1.340219       0.134021
 151.395   0.1118164062  0.89938      963.50000 0.8620       1.379868       0.137985
 150.111   0.1118164062  0.90042      964.00000 0.8594       1.406283       0.140625
 148.896   0.1118164062  0.90152      964.50000 0.8581       1.419241       0.141919
 147.808   0.1118164062  0.90251      965.00000 0.8581       1.418662       0.141860
 146.901   0.1118164062  0.90304      965.50000 0.8595       1.404617       0.140454
 146.228   0.1118164062  0.90275      966.00000 0.8623       1.377467       0.137739
 145.835   0.1118164062  0.90137      966.50000 0.8662       1.338048       0.133797
 145.761   0.1118164062  0.89879      967.00000 0.8712       1.287801       0.128772
 146.042   0.1118164062  0.89516      967.50000 0.8771       1.228784       0.122871
 146.707   0.1118164062  0.89081      968.00000 0.8837       1.163549       0.116348
 147.778   0.1118164062  0.88624      968.50000 0.8905       1.094963       0.109490
 149.271   0.1118164062  0.88194      969.00000 0.8974       1.025978       0.102591
 151.189   0.1118164062  0.87836      969.50000 0.9041       0.959461       0.095939
 153.512   0.1118164062  0.87577      970.00000 0.9102       0.898048       0.089796
 157.285   0.1118164062  0.86361      984.50000 0.9456       0.543810       0.054381
 160.651   0.1118164062  0.86393      985.00000 0.9486       0.514326       0.051433
 163.680   0.1118164062  0.86439      985.50000 0.9508       0.492238       0.049224
 166.219   0.1118164062  0.86498      986.00000 0.9523       0.477358       0.047736
 168.142   0.1118164062  0.86562      986.50000 0.9530       0.469969       0.046997
 169.366   0.1118164062  0.86622      987.00000 0.9529       0.470984       0.047098
 159.044   0.1118164062  0.90708     1005.00000 0.9342       0.657654       0.065762
 158.814   0.1118164062  0.90579     1005.50000 0.9356       0.643791       0.064377
 158.605   0.1118164062  0.90256     1006.00000 0.9362       0.638248       0.063825
 158.526   0.1118164062  0.89687     1006.50000 0.9357       0.642574       0.064257
 158.686   0.1118164062  0.88866     1007.00000 0.9342       0.658165       0.065815
 159.159   0.1118164062  0.87830     1007.50000 0.9314       0.686313       0.068627
 159.963   0.1118164062  0.86641     1008.00000 0.9272       0.728299       0.072820
 177.272   0.1118164062  0.89534     1024.50000 0.9503       0.496832       0.049683
-178.323   0.1118164062  0.89236     1025.00000 0.9451       0.548661       0.054866
-174.673   0.1118164062  0.88880     1025.50000 0.9388       0.612418       0.061241
-171.960   0.1118164062  0.88471     1026.00000 0.9314       0.686246       0.068623
 158.397   0.1118164062  0.79675     1041.00000 0.8728       1.272340       0.127234
