 174.617   0.3112792969  0.78478     1564.00000 0.9848       0.152041       0.015204
 172.532   0.3159179688  0.76130     1564.00000 0.9859       0.141125       0.014112
 167.987   0.3251953125  0.77000     1564.00000 0.9878       0.122401       0.012240
 165.569   0.3298339844  0.79928     1564.00000 0.9885       0.114567       0.011457
 163.093   0.3344726562  0.80032     1564.00000 0.9892       0.107714       0.010771
-133.418   0.3344726562  0.76457     2713.50000 0.4426       5.573806       0.557364
 160.603   0.3391113281  0.79496     1564.00000 0.9898       0.101797       0.010180
-133.367   0.3391113281  0.76762     2713.50000 0.4383       5.617487       0.561739
 158.144   0.3437500000  0.78756     1564.00000 0.9903       0.096762       0.009676
 155.768   0.3483886719  0.78539     1564.00000 0.9907       0.092551       0.009255
 153.527   0.3530273438  0.77716     1564.00000 0.9911       0.089098       0.008910
 151.470   0.3576660156  0.76910     1564.00000 0.9914       0.086340       0.008634
 149.640   0.3623046875  0.76143     1564.00000 0.9916       0.084211       0.008421
 148.070   0.3669433594  0.75422     1564.00000 0.9917       0.082651       0.008265
  18.691   0.3808593750  0.82893     1372.50000 0.7910       2.090299       0.209030
-142.747   0.3808593750  0.76135     1979.00000 0.9119       0.881227       0.088122
-148.333   0.3808593750  0.78983     1979.50000 0.8881       1.118748       0.111869
  18.806   0.3854980469  0.82490     1372.50000 0.7896       2.104312       0.210431
-142.612   0.3854980469  0.75456     1979.00000 0.9110       0.890014       0.089000
-148.348   0.3854980469  0.78365     1979.50000 0.8873       1.126870       0.112681
  18.916   0.3901367188  0.82072     1372.50000 0.7881       2.118536       0.211854
-148.377   0.3901367188  0.77761     1979.50000 0.8865       1.134617       0.113456
  19.024   0.3947753906  0.81639     1372.50000 0.7867       2.132966       0.213297
-148.418   0.3947753906  0.77171     1979.50000 0.8858       1.142000       0.114194
  19.128   0.3994140625  0.81194     1372.50000 0.7852       2.147601       0.214760
-148.471   0.3994140625  0.76593     1979.50000 0.8851       1.149030       0.114897
  19.230   0.4040527344  0.80735     1372.50000 0.7838       2.162436       0.216244
-148.536   0.4040527344  0.76028     1979.50000 0.8844       1.155717       0.115566
  19.329   0.4086914062  0.80264     1372.50000 0.7823       2.177471       0.217747
-148.612   0.4086914062  0.75475     1979.50000 0.8838       1.162074       0.116201
  19.426   0.4133300781  0.79780     1372.50000 0.7807       2.192706       0.219271
  19.521   0.4179687500  0.82045     1372.50000 0.7792       2.208139       0.220814
  19.615   0.4226074219  0.81522     1372.50000 0.7776       2.223771       0.222377
  19.708   0.4272460938  0.80980     1372.50000 0.7760       2.239602       0.223960
  19.799   0.4318847656  0.80419     1372.50000 0.7744       2.255632       0.225563
  19.890   0.4365234375  0.79836     1372.50000 0.7728       2.271863       0.227186
  19.979   0.4411621094  0.79229     1372.50000 0.7712       2.288295       0.228830
  20.068   0.4458007812  0.78598     1372.50000 0.7695       2.304930       0.230493
  20.157   0.4504394531  0.77938     1372.50000 0.7678       2.321768       0.232177
  20.246   0.4550781250  0.77249     1372.50000 0.7661       2.338813       0.233881
  20.334   0.4597167969  0.76526     1372.50000 0.7644       2.356062       0.235606
  20.422   0.4643554688  0.75152     1372.50000 0.7626       2.373519       0.237352
  59.177   0.4968261719  0.75407     2078.00000 0.7727       2.273497       0.227346
  59.276   0.5014648438  0.75997     2078.00000 0.7686       2.313950       0.231392
2009  23 16 57 24 350
  39.886   0.0979003906  0.78921     2436.00000 0.8415       1.585453       0.158541
  43.209   0.1025390625  0.77812     2436.00000 0.8245       1.755339       0.175534
  56.773   0.1025390625  0.78196     2438.50000 0.7280       2.720251       0.272011
  57.498   0.1071777344  0.75789     1106.00000 0.8526       1.474224       0.147421
  54.354   0.1071777344  0.77181     1106.50000 0.8466       1.534220       0.153417
  51.026   0.1071777344  0.78946     1107.00000 0.8399       1.600885       0.160080
  48.034   0.1071777344  0.80903     1107.50000 0.8335       1.664576       0.166451
  45.790   0.1071777344  0.82792     1108.00000 0.8288       1.711759       0.171174
  58.468   0.1118164062  0.80743     1105.50000 0.8576       1.424221       0.142419
  56.298   0.1118164062  0.82469     1106.00000 0.8549       1.451416       0.145142
  53.379   0.1118164062  0.84331     1106.50000 0.8510       1.489904       0.148988
  50.224   0.1118164062  0.86112     1107.00000 0.8465       1.534764       0.153473
  47.337   0.1118164062  0.87534     1107.50000 0.8423       1.577368       0.157734
  45.124   0.1118164062  0.88404     1108.00000 0.8394       1.606119       0.160611
  43.873   0.1118164062  0.88792     1108.50000 0.8391       1.609143       0.160914
  49.434   0.1164550781  0.89282     1107.00000 0.8525       1.474964       0.147495
  46.573   0.1164550781  0.90122     1107.50000 0.8497       1.502743       0.150273
  44.337   0.1164550781  0.90543     1108.00000 0.8481       1.519185       0.151918
  43.015   0.1164550781  0.90712     1108.50000 0.8486       1.513831       0.151383
  45.715   0.1210937500  0.91311     1107.50000 0.8564       1.436205       0.143620
  43.416   0.1210937500  0.91378     1108.00000 0.8555       1.444619       0.144462
  42.003   0.1210937500  0.91418     1108.50000 0.8566       1.434102       0.143409
  41.646   0.1210937500  0.91448     1109.00000 0.8602       1.398044       0.139801
  37.168   0.1210937500  0.77527     2348.50000 0.8070       1.930218       0.193021
  37.933   0.1210937500  0.77579     2349.00000 0.8057       1.943370       0.194336
  42.357   0.1257324219  0.91619     1108.00000 0.8621       1.379406       0.137940
  40.843   0.1257324219  0.91642     1108.50000 0.8634       1.366109       0.136609
  40.372   0.1257324219  0.91686     1109.00000 0.8671       1.329460       0.132942
  36.782   0.1257324219  0.76336     2348.50000 0.8293       1.707172       0.170717
  37.465   0.1257324219  0.76054     2349.00000 0.8283       1.716871       0.171684
  41.164   0.1303710938  0.91447     1108.00000 0.8678       1.322354       0.132234
  39.547   0.1303710938  0.91472     1108.50000 0.8692       1.308155       0.130812
  38.970   0.1303710938  0.91536     1109.00000 0.8728       1.271789       0.127174
  47.905   0.1350097656  0.80561     1101.00000 0.7086       2.914697       0.291433
  38.133   0.1350097656  0.91015     1108.50000 0.8740       1.259606       0.125956
  37.463   0.1350097656  0.91091     1109.00000 0.8776       1.224200       0.122414
  37.896   0.1350097656  0.91178     1109.50000 0.8835       1.165570       0.116550
  49.985   0.1396484375  0.81047     1100.50000 0.6438       3.561961       0.356192
  36.629   0.1396484375  0.90293     1108.50000 0.8780       1.220322       0.122026
  35.881   0.1396484375  0.90362     1109.00000 0.8814       1.186368       0.118630
  36.242   0.1396484375  0.90405     1109.50000 0.8871       1.128703       0.112863
  34.259   0.1442871094  0.89263     1109.00000 0.8842       1.158185       0.115810
  34.565   0.1442871094  0.89237     1109.50000 0.8899       1.101146       0.110107
  35.946   0.1442871094  0.89202     1110.00000 0.8977       1.023372       0.102331
  32.634   0.1489257812  0.87558     1109.00000 0.8860       1.139628       0.113954
  32.903   0.1489257812  0.87483     1109.50000 0.8917       1.082739       0.108266
  34.255   0.1489257812  0.87447     1110.00000 0.8997       1.003515       0.100345
  36.543   0.1489257812  0.87519     1110.50000 0.9089       0.910943       0.091091
  39.415   0.1489257812  0.87668     1111.00000 0.9184       0.815901       0.081589
  31.043   0.1535644531  0.84608     1109.00000 0.8869       1.130713       0.113061
  31.291   0.1535644531  0.84544     1109.50000 0.8927       1.073336       0.107325
  32.630   0.1535644531  0.84527     1110.00000 0.9009       0.991468       0.099140
  34.929   0.1535644531  0.84552     1110.50000 0.9105       0.894828       0.089479
  37.861   0.1535644531  0.84579     1111.00000 0.9205       0.795180       0.079517
  40.783   0.1535644531  0.84611     1111.50000 0.9297       0.702977       0.070298
  42.721   0.1535644531  0.84658     1112.00000 0.9375       0.625112       0.062509
  29.764   0.1582031250  0.78372     1109.50000 0.8927       1.072813       0.107272
  31.102   0.1582031250  0.78331     1110.00000 0.9013       0.986848       0.098678
  33.425   0.1582031250  0.78312     1110.50000 0.9116       0.884428       0.088439
  36.433   0.1582031250  0.78491     1111.00000 0.9221       0.778568       0.077856
  39.493   0.1582031250  0.78920     1111.50000 0.9319       0.680779       0.068078
  41.583   0.1582031250  0.79352     1112.00000 0.9401       0.598520       0.059850
  40.255   0.1813964844  0.80547     2420.00000 0.9297       0.703266       0.070322
  41.438   0.1813964844  0.80122     2420.50000 0.9299       0.701327       0.070130
  20.243   0.1813964844  0.77879     2423.50000 0.9555       0.445525       0.044549
  11.264   0.1813964844  0.78061     2424.00000 0.9585       0.414608       0.041459
   3.862   0.1813964844  0.78308     2424.50000 0.9598       0.401950       0.040195
   0.298   0.1813964844  0.78384     2425.00000 0.9598       0.401562       0.040155
   1.567   0.1813964844  0.78033     2425.50000 0.9593       0.407485       0.040742
  41.249   0.1860351562  0.82485     2420.00000 0.9289       0.711456       0.071142
  42.369   0.1860351562  0.82061     2420.50000 0.9291       0.709373       0.070935
  42.616   0.1860351562  0.81514     2421.00000 0.9307       0.692952       0.069293
  21.181   0.1860351562  0.80178     2423.50000 0.9551       0.449014       0.044898
  12.426   0.1860351562  0.80538     2424.00000 0.9583       0.417306       0.041729
   5.376   0.1860351562  0.80918     2424.50000 0.9596       0.404117       0.040412
   2.314   0.1860351562  0.80969     2425.00000 0.9596       0.403884       0.040387
  42.257   0.1906738281  0.83148     2420.00000 0.9280       0.719695       0.071966
  43.289   0.1906738281  0.82732     2420.50000 0.9283       0.717498       0.071748
  43.435   0.1906738281  0.82228     2421.00000 0.9299       0.700717       0.070070
  42.489   0.1906738281  0.81736     2421.50000 0.9332       0.667679       0.066766
  21.963   0.1906738281  0.81251     2423.50000 0.9548       0.452185       0.045216
  13.381   0.1906738281  0.81770     2424.00000 0.9580       0.419587       0.041958
   6.621   0.1906738281  0.82352     2424.50000 0.9594       0.405795       0.040579
   3.993   0.1906738281  0.82537     2425.00000 0.9594       0.405616       0.040560
  43.276   0.1953125000  0.82512     2420.00000 0.9272       0.727944       0.072791
  44.192   0.1953125000  0.82241     2420.50000 0.9274       0.725661       0.072565
  44.210   0.1953125000  0.81839     2421.00000 0.9291       0.708518       0.070851
  43.157   0.1953125000  0.81447     2421.50000 0.9325       0.674863       0.067485
  40.757   0.1953125000  0.81190     2422.00000 0.9374       0.626003       0.062599
  30.538   0.1953125000  0.81428     2423.00000 0.9494       0.506390       0.050636
  22.603   0.1953125000  0.82025     2423.50000 0.9545       0.455068       0.045505
  14.149   0.1953125000  0.82802     2424.00000 0.9579       0.421471       0.042146
   7.626   0.1953125000  0.83211     2424.50000 0.9593       0.406973       0.040697
   5.378   0.1953125000  0.82922     2425.00000 0.9593       0.406699       0.040668
  85.495   0.1953125000  0.75904     3567.50000 0.8930       1.069993       0.106987
  44.300   0.1999511719  0.81458     2420.00000 0.9264       0.736172       0.073614
  45.070   0.1999511719  0.81185     2420.50000 0.9266       0.733823       0.073381
  44.933   0.1999511719  0.80800     2421.00000 0.9284       0.716321       0.071631
  43.755   0.1999511719  0.80444     2421.50000 0.9318       0.682056       0.068205
  41.274   0.1999511719  0.80243     2422.00000 0.9368       0.632324       0.063231
  37.127   0.1999511719  0.80294     2422.50000 0.9428       0.572142       0.057212
  31.012   0.1999511719  0.80690     2423.00000 0.9490       0.510303       0.051028
  23.111   0.1999511719  0.81507     2423.50000 0.9542       0.457702       0.045768
  14.748   0.1999511719  0.82645     2424.00000 0.9577       0.422990       0.042298
   8.416   0.1999511719  0.83409     2424.50000 0.9592       0.407665       0.040766
   6.504   0.1999511719  0.83135     2425.00000 0.9593       0.407121       0.040710
  84.684   0.1999511719  0.76836     3567.50000 0.8916       1.083899       0.108379
  45.328   0.2045898438  0.78954     2420.00000 0.9256       0.744348       0.074432
  45.920   0.2045898438  0.78865     2420.50000 0.9258       0.741946       0.074194
  45.601   0.2045898438  0.78662     2421.00000 0.9276       0.724099       0.072410
  44.282   0.2045898438  0.78500     2421.50000 0.9311       0.689249       0.068925
  41.710   0.2045898438  0.78593     2422.00000 0.9361       0.638655       0.063865
  37.517   0.2045898438  0.79131     2422.50000 0.9423       0.577318       0.057730
  31.387   0.2045898438  0.80234     2423.00000 0.9486       0.514117       0.051410
  23.501   0.2045898438  0.81845     2423.50000 0.9540       0.460125       0.046011
  15.196   0.2045898438  0.83151     2424.00000 0.9576       0.424182       0.042418
   9.015   0.2045898438  0.82738     2424.50000 0.9592       0.407903       0.040790
   7.403   0.2045898438  0.83197     2425.00000 0.9593       0.406902       0.040688
  83.935   0.2045898438  0.77776     3567.50000 0.8903       1.097525       0.109744
  84.734   0.2045898438  0.75588     3568.00000 0.8834       1.166444       0.116639
  44.928   0.2092285156  0.76566     2419.50000 0.9258       0.742377       0.074231
  46.355   0.2092285156  0.76554     2420.00000 0.9248       0.752445       0.075243
  46.733   0.2092285156  0.76449     2420.50000 0.9250       0.749996       0.074999
  46.207   0.2092285156  0.76229     2421.00000 0.9268       0.731824       0.073182
  44.735   0.2092285156  0.76065     2421.50000 0.9304       0.696433       0.069643
  42.068   0.2092285156  0.76194     2422.00000 0.9355       0.645005       0.064500
  37.826   0.2092285156  0.76836     2422.50000 0.9418       0.582496       0.058248
  31.675   0.2092285156  0.78177     2423.00000 0.9482       0.517861       0.051784
  23.785   0.2092285156  0.80298     2423.50000 0.9538       0.462374       0.046236
  15.508   0.2092285156  0.82499     2424.00000 0.9575       0.425085       0.042508
   9.443   0.2092285156  0.82098     2424.50000 0.9592       0.407722       0.040772
   8.102   0.2092285156  0.83065     2425.00000 0.9594       0.406080       0.040605
  83.246   0.2092285156  0.75911     3567.50000 0.8889       1.110829       0.111076
  43.948   0.2092285156  0.75045     3651.00000 0.8868       1.131534       0.113152
  39.687   0.2092285156  0.75943     3651.50000 0.8952       1.047758       0.104775
  35.922   0.2092285156  0.75981     3652.00000 0.8989       1.010559       0.101056
  34.661   0.2138671875  0.85376      581.50000 0.0118      10.119427       1.011931
  38.062   0.2138671875  0.75320     2422.50000 0.9412       0.587691       0.058768
  31.885   0.2138671875  0.78099     2423.00000 0.9478       0.521560       0.052154
  23.975   0.2138671875  0.81671     2423.50000 0.9536       0.464481       0.046447
  15.699   0.2138671875  0.81238     2424.00000 0.9574       0.425739       0.042574
   9.719   0.2138671875  0.82696     2424.50000 0.9593       0.407168       0.040717
   8.624   0.2138671875  0.83649     2425.00000 0.9595       0.404701       0.040467
  81.611   0.2138671875  0.80710     3567.00000 0.8947       1.052760       0.105264
  82.615   0.2138671875  0.80638     3567.50000 0.8876       1.123749       0.112369
  43.617   0.2138671875  0.75444     3651.00000 0.8876       1.123712       0.112370
  39.039   0.2138671875  0.75794     3651.50000 0.8963       1.037466       0.103746
  35.056   0.2138671875  0.75524     3652.00000 0.9002       0.998447       0.099845
  32.025   0.2185058594  0.75818     2423.00000 0.9475       0.525234       0.052522
  24.082   0.2185058594  0.80538     2423.50000 0.9534       0.466475       0.046646
  15.782   0.2185058594  0.80171     2424.00000 0.9574       0.426181       0.042618
   9.856   0.2185058594  0.82280     2424.50000 0.9594       0.406286       0.040628
   8.987   0.2185058594  0.83406     2425.00000 0.9597       0.402817       0.040278
  80.943   0.2185058594  0.80149     3567.00000 0.8930       1.069911       0.106981
  82.039   0.2185058594  0.80300     3567.50000 0.8864       1.136216       0.113617
  32.106   0.2231445312  0.79083     2423.00000 0.9471       0.528896       0.052888
  24.116   0.2231445312  0.78919     2423.50000 0.9532       0.468379       0.046837
  15.769   0.2231445312  0.81740     2424.00000 0.9574       0.426448       0.042645
   9.869   0.2231445312  0.83028     2424.50000 0.9595       0.405121       0.040512
   9.207   0.2231445312  0.83526     2425.00000 0.9600       0.400482       0.040045
  80.333   0.2231445312  0.80087     3567.00000 0.8914       1.086531       0.108644
  81.517   0.2231445312  0.80129     3567.50000 0.8852       1.148158       0.114812
  82.628   0.2231445312  0.81030     3568.00000 0.8804       1.195886       0.119588
  84.009   0.2231445312  0.76499     3568.50000 0.8782       1.218380       0.121838
  24.088   0.2277832031  0.77858     2423.50000 0.9530       0.470212       0.047020
  15.670   0.2277832031  0.81153     2424.00000 0.9573       0.426570       0.042657
   9.769   0.2277832031  0.82518     2424.50000 0.9596       0.403720       0.040372
   9.297   0.2277832031  0.83030     2425.00000 0.9602       0.397751       0.039772
  79.778   0.2277832031  0.79322     3567.00000 0.8898       1.102525       0.110245
  81.046   0.2277832031  0.79535     3567.50000 0.8841       1.159508       0.115948
  82.217   0.2277832031  0.80620     3568.00000 0.8798       1.202348       0.120234
  83.638   0.2277832031  0.77467     3568.50000 0.8780       1.219536       0.121954
  47.357   0.2277832031  0.76028     3650.50000 0.8783       1.217018       0.121702
  42.419   0.2277832031  0.76287     3651.00000 0.8893       1.107067       0.110707
  36.803   0.2277832031  0.75972     3651.50000 0.8985       1.014714       0.101471
  32.121   0.2277832031  0.75473     3652.00000 0.9029       0.971479       0.097148
  32.123   0.2324218750  0.76166     2423.00000 0.9464       0.536214       0.053620
  24.004   0.2324218750  0.76946     2423.50000 0.9528       0.471989       0.047198
  15.493   0.2324218750  0.80516     2424.00000 0.9573       0.426581       0.042658
   9.564   0.2324218750  0.81900     2424.50000 0.9598       0.402127       0.040212
   9.268   0.2324218750  0.82403     2425.00000 0.9605       0.394676       0.039464
  79.275   0.2324218750  0.78502     3567.00000 0.8882       1.117796       0.111773
  80.623   0.2324218750  0.78881     3567.50000 0.8830       1.170207       0.117019
  81.848   0.2324218750  0.80140     3568.00000 0.8792       1.208398       0.120840
  83.302   0.2324218750  0.78046     3568.50000 0.8779       1.220566       0.122057
  51.210   0.2324218750  0.75203     3650.00000 0.8691       1.309055       0.130904
  47.255   0.2324218750  0.76421     3650.50000 0.8784       1.215925       0.121592
  41.959   0.2324218750  0.76730     3651.00000 0.8897       1.103491       0.110349
  35.970   0.2324218750  0.76439     3651.50000 0.8990       1.009592       0.100959
  31.043   0.2324218750  0.75969     3652.00000 0.9035       0.965458       0.096545
  38.424   0.2370605469  0.76438     2422.50000 0.9386       0.614200       0.061420
  32.075   0.2370605469  0.76075     2423.00000 0.9460       0.539873       0.053986
  23.873   0.2370605469  0.79424     2423.50000 0.9526       0.473724       0.047371
  15.246   0.2370605469  0.80804     2424.00000 0.9573       0.426507       0.042651
   9.265   0.2370605469  0.81510     2424.50000 0.9600       0.400385       0.040038
   9.128   0.2370605469  0.81828     2425.00000 0.9609       0.391311       0.039127
  42.702   0.2370605469  0.82606     2428.00000 0.9363       0.637225       0.063713
  78.821   0.2370605469  0.78732     3567.00000 0.8868       1.132251       0.113220
  80.245   0.2370605469  0.79393     3567.50000 0.8820       1.180210       0.118020
  81.519   0.2370605469  0.80400     3568.00000 0.8786       1.214031       0.121403
  82.998   0.2370605469  0.81823     3568.50000 0.8779       1.221491       0.122149
  85.022   0.2370605469  0.79542     3569.00000 0.8800       1.200240       0.120024
  51.391   0.2370605469  0.78620     3650.00000 0.8689       1.311139       0.131111
  47.137   0.2370605469  0.77609     3650.50000 0.8784       1.215519       0.121551
  41.473   0.2370605469  0.76531     3651.00000 0.8899       1.100711       0.110071
  35.100   0.2370605469  0.75655     3651.50000 0.8994       1.005526       0.100553
  29.924   0.2370605469  0.75010     3652.00000 0.9039       0.960765       0.096076
  38.387   0.2416992188  0.75749     2422.50000 0.9380       0.619591       0.061959
  31.998   0.2416992188  0.75363     2423.00000 0.9456       0.543527       0.054352
  23.701   0.2416992188  0.78583     2423.50000 0.9525       0.475424       0.047541
  14.938   0.2416992188  0.79919     2424.00000 0.9574       0.426374       0.042637
   8.878   0.2416992188  0.80623     2424.50000 0.9601       0.398537       0.039853
   8.885   0.2416992188  0.80938     2425.00000 0.9612       0.387707       0.038767
  78.414   0.2416992188  0.77877     3567.00000 0.8854       1.145808       0.114576
  79.910   0.2416992188  0.78709     3567.50000 0.8811       1.189483       0.118948
  81.226   0.2416992188  0.79930     3568.00000 0.8781       1.219255       0.121926
  82.725   0.2416992188  0.81545     3568.50000 0.8778       1.222342       0.122234
  84.762   0.2416992188  0.79826     3569.00000 0.8804       1.196047       0.119604
  51.561   0.2416992188  0.77811     3650.00000 0.8686       1.313865       0.131383
  47.005   0.2416992188  0.76782     3650.50000 0.8784       1.215694       0.121568
  40.963   0.2416992188  0.75723     3651.00000 0.8901       1.098602       0.109860
  23.494   0.2463378906  0.77666     2423.50000 0.9523       0.477095       0.047709
  14.573   0.2463378906  0.78934     2424.00000 0.9574       0.426206       0.042620
   8.409   0.2463378906  0.79626     2424.50000 0.9603       0.396623       0.039662
   8.545   0.2463378906  0.79927     2425.00000 0.9616       0.383913       0.038387
  78.050   0.2463378906  0.76980     3567.00000 0.8842       1.158398       0.115836
  79.615   0.2463378906  0.77989     3567.50000 0.8802       1.198008       0.119800
  80.967   0.2463378906  0.79428     3568.00000 0.8776       1.224089       0.122409
  82.479   0.2463378906  0.81247     3568.50000 0.8777       1.223154       0.122315
  84.524   0.2463378906  0.79971     3569.00000 0.8808       1.192077       0.119207
  51.721   0.2463378906  0.76754     3650.00000 0.8683       1.317164       0.131711
  46.860   0.2463378906  0.75701     3650.50000 0.8784       1.216340       0.121632
  31.781   0.2509765625  0.77404     2423.00000 0.9449       0.550791       0.055078
  23.259   0.2509765625  0.77781     2423.50000 0.9521       0.478740       0.047873
  14.158   0.2509765625  0.77854     2424.00000 0.9574       0.426022       0.042602
   7.866   0.2509765625  0.78227     2424.50000 0.9605       0.394682       0.039468
   8.113   0.2509765625  0.78679     2425.00000 0.9620       0.379978       0.037994
  77.727   0.2509765625  0.77810     3567.00000 0.8830       1.169964       0.116993
  79.357   0.2509765625  0.79135     3567.50000 0.8794       1.205780       0.120578
  80.738   0.2509765625  0.80452     3568.00000 0.8771       1.228556       0.122855
  82.259   0.2509765625  0.81464     3568.50000 0.8776       1.223965       0.122396
  84.307   0.2509765625  0.82048     3569.00000 0.8812       1.188369       0.118836
  87.178   0.2509765625  0.79599     3569.50000 0.8868       1.131917       0.113191
  51.871   0.2509765625  0.79929     3650.00000 0.8679       1.320962       0.132089
  46.706   0.2509765625  0.76196     3650.50000 0.8783       1.217349       0.121732
  81.587   0.2509765625  0.76359     4027.50000 0.8963       1.036903       0.103684
  78.706   0.2509765625  0.78290     4028.00000 0.8991       1.008952       0.100890
  77.511   0.2509765625  0.77273     4028.50000 0.9060       0.939994       0.093998
  31.651   0.2556152344  0.76458     2423.00000 0.9446       0.554383       0.055437
  22.998   0.2556152344  0.76638     2423.50000 0.9520       0.480362       0.048035
  13.698   0.2556152344  0.76584     2424.00000 0.9574       0.425843       0.042584
   7.252   0.2556152344  0.76935     2424.50000 0.9607       0.392749       0.039274
   7.593   0.2556152344  0.77407     2425.00000 0.9624       0.375949       0.037591
  77.443   0.2556152344  0.76953     3567.00000 0.8820       1.180467       0.118044
  79.132   0.2556152344  0.78488     3567.50000 0.8787       1.212805       0.121280
  80.538   0.2556152344  0.80054     3568.00000 0.8767       1.232690       0.123269
  82.061   0.2556152344  0.81289     3568.50000 0.8775       1.224814       0.122480
  84.107   0.2556152344  0.81913     3569.00000 0.8815       1.184960       0.118495
  86.994   0.2556152344  0.79592     3569.50000 0.8877       1.123337       0.112333
  52.013   0.2556152344  0.78560     3650.00000 0.8675       1.325192       0.132510
  81.281   0.2556152344  0.77177     4027.50000 0.8963       1.037232       0.103716
  78.474   0.2556152344  0.79212     4028.00000 0.8993       1.007180       0.100713
  77.380   0.2556152344  0.78385     4028.50000 0.9064       0.935542       0.093552
  31.512   0.2602539062  0.75451     2423.00000 0.9442       0.557934       0.055793
  22.717   0.2602539062  0.75421     2423.50000 0.9518       0.481959       0.048195
  13.198   0.2602539062  0.75213     2424.00000 0.9574       0.425683       0.042568
   6.573   0.2602539062  0.75528     2424.50000 0.9609       0.390859       0.039085
   6.991   0.2602539062  0.76013     2425.00000 0.9628       0.371872       0.037183
  41.365   0.2602539062  0.75686     2784.50000 0.8360       1.639737       0.163963
  77.195   0.2602539062  0.76045     3567.00000 0.8810       1.189881       0.118986
  78.939   0.2602539062  0.77799     3567.50000 0.8781       1.219100       0.121910
  80.363   0.2602539062  0.79629     3568.00000 0.8763       1.236527       0.123652
  81.883   0.2602539062  0.81113     3568.50000 0.8774       1.225737       0.122572
  83.925   0.2602539062  0.81782     3569.00000 0.8818       1.181882       0.118187
  86.823   0.2602539062  0.79538     3569.50000 0.8885       1.115217       0.111521
  52.147   0.2602539062  0.77066     3650.00000 0.8670       1.329789       0.132967
  81.010   0.2602539062  0.77146     4027.50000 0.8963       1.036724       0.103665
  78.261   0.2602539062  0.79180     4028.00000 0.8995       1.004883       0.100483
  77.259   0.2602539062  0.78457     4028.50000 0.9069       0.930745       0.093073
  37.999   0.2648925781  0.75102     2422.50000 0.9354       0.646342       0.064634
  31.368   0.2648925781  0.75488     2423.00000 0.9439       0.561432       0.056142
  44.405   0.2648925781  0.78330     2784.00000 0.8337       1.663162       0.166310
  41.425   0.2648925781  0.81674     2784.50000 0.8363       1.636722       0.163663
  38.536   0.2648925781  0.83482     2785.00000 0.8365       1.634752       0.163464
  74.610   0.2648925781  0.75764     3566.50000 0.8820       1.179672       0.117959
  76.980   0.2648925781  0.77596     3567.00000 0.8802       1.198198       0.119819
  78.774   0.2648925781  0.79551     3567.50000 0.8775       1.224696       0.122470
  80.211   0.2648925781  0.80917     3568.00000 0.8760       1.240104       0.124009
  81.724   0.2648925781  0.80965     3568.50000 0.8773       1.226770       0.122675
  83.757   0.2648925781  0.80641     3569.00000 0.8821       1.179161       0.117915
  86.665   0.2648925781  0.80657     3569.50000 0.8892       1.107581       0.110757
  90.577   0.2648925781  0.78417     3570.00000 0.8965       1.035179       0.103517
  52.274   0.2648925781  0.80395     3650.00000 0.8665       1.334695       0.133455
  87.679   0.2648925781  0.77841     4026.50000 0.8937       1.063135       0.106314
  84.540   0.2648925781  0.79669     4027.00000 0.8957       1.043354       0.104329
  80.767   0.2648925781  0.78683     4027.50000 0.8965       1.035461       0.103538
  78.063   0.2648925781  0.79092     4028.00000 0.8998       1.002170       0.100212
  77.146   0.2648925781  0.80002     4028.50000 0.9074       0.925721       0.092570
  83.957   0.2648925781  0.78880     4030.00000 0.9363       0.637010       0.063701
  44.473   0.2695312500  0.78161     2784.00000 0.8334       1.666214       0.166617
  41.469   0.2695312500  0.81621     2784.50000 0.8368       1.632429       0.163235
  38.569   0.2695312500  0.83478     2785.00000 0.8373       1.627501       0.162740
  76.796   0.2695312500  0.76717     3567.00000 0.8795       1.205422       0.120541
  78.636   0.2695312500  0.78973     3567.50000 0.8770       1.229625       0.122962
  80.079   0.2695312500  0.80659     3568.00000 0.8757       1.243461       0.124345
  81.581   0.2695312500  0.80781     3568.50000 0.8772       1.227941       0.122792
  83.602   0.2695312500  0.80456     3569.00000 0.8823       1.176819       0.117680
  86.517   0.2695312500  0.80456     3569.50000 0.8900       1.100446       0.110043
  90.480   0.2695312500  0.78243     3570.00000 0.8977       1.022644       0.102263
  87.416   0.2695312500  0.77085     4026.50000 0.8934       1.065702       0.106570
  80.550   0.2695312500  0.78090     4027.50000 0.8967       1.033530       0.103344
  77.879   0.2695312500  0.78286     4028.00000 0.9001       0.999149       0.099909
  77.041   0.2695312500  0.79008     4028.50000 0.9079       0.920581       0.092056
  84.356   0.2695312500  0.79670     4030.00000 0.9374       0.626038       0.062604
  44.529   0.2741699219  0.77980     2784.00000 0.8333       1.667247       0.166721
  41.502   0.2741699219  0.81564     2784.50000 0.8373       1.626996       0.162693
  38.587   0.2741699219  0.83473     2785.00000 0.8380       1.619759       0.161968
  76.641   0.2741699219  0.75728     3567.00000 0.8788       1.211571       0.121157
  81.452   0.2741699219  0.80561     3568.50000 0.8771       1.229278       0.122925
  83.458   0.2741699219  0.80255     3569.00000 0.8825       1.174871       0.117485
  86.380   0.2741699219  0.80259     3569.50000 0.8906       1.093823       0.109381
  90.392   0.2741699219  0.78053     3570.00000 0.8989       1.010641       0.101063
  87.212   0.2741699219  0.78546     4026.50000 0.8933       1.066888       0.106688
  77.705   0.2741699219  0.79486     4028.00000 0.9004       0.995923       0.099587
  76.942   0.2741699219  0.80075     4028.50000 0.9085       0.915427       0.091541
  84.767   0.2741699219  0.80240     4030.00000 0.9385       0.614811       0.061481
  85.983   0.2741699219  0.75303     4030.50000 0.9382       0.618178       0.061818
  44.574   0.2788085938  0.77783     2784.00000 0.8334       1.666391       0.166636
  41.523   0.2788085938  0.81500     2784.50000 0.8379       1.620567       0.162051
  38.591   0.2788085938  0.83463     2785.00000 0.8388       1.611632       0.161156
  81.335   0.2788085938  0.80265     3568.50000 0.8769       1.230802       0.123077
  83.326   0.2788085938  0.80026     3569.00000 0.8827       1.173328       0.117330
  86.251   0.2788085938  0.80062     3569.50000 0.8912       1.087718       0.108770
  90.313   0.2788085938  0.77852     3570.00000 0.9001       0.999180       0.099916
  87.063   0.2788085938  0.81608     4026.50000 0.8933       1.066691       0.106668
  77.539   0.2788085938  0.82013     4028.00000 0.9007       0.992585       0.099253
  76.847   0.2788085938  0.82470     4028.50000 0.9090       0.910348       0.091033
  86.401   0.2788085938  0.75980     4030.50000 0.9392       0.607586       0.060759
  44.612   0.2834472656  0.83165     2784.00000 0.8336       1.663799       0.166378
  41.536   0.2834472656  0.86488     2784.50000 0.8387       1.613287       0.161325
  38.584   0.2834472656  0.87688     2785.00000 0.8397       1.603213       0.160315
  76.407   0.2834472656  0.76801     3567.00000 0.8779       1.220771       0.122077
  81.229   0.2834472656  0.79408     3568.50000 0.8768       1.232530       0.123250
  83.202   0.2834472656  0.78957     3569.00000 0.8828       1.172194       0.117217
  86.131   0.2834472656  0.78686     3569.50000 0.8918       1.082131       0.108211
  90.241   0.2834472656  0.79045     3570.00000 0.9012       0.988265       0.098825
  87.064   0.2834472656  0.84612     4026.00000 0.8840       1.160091       0.115998
  86.963   0.2834472656  0.89455     4026.50000 0.8935       1.065125       0.106511
  77.380   0.2834472656  0.84935     4028.00000 0.9011       0.989225       0.098916
  76.756   0.2834472656  0.84856     4028.50000 0.9095       0.905422       0.090541
  86.825   0.2834472656  0.80127     4030.50000 0.9403       0.596670       0.059667
  83.832   0.2834472656  0.75426     4031.00000 0.9288       0.711914       0.071190
  47.634   0.2880859375  0.77768     2783.50000 0.8186       1.813959       0.181396
  44.643   0.2880859375  0.82964     2784.00000 0.8340       1.659647       0.165964
  41.541   0.2880859375  0.86398     2784.50000 0.8395       1.605301       0.160527
  38.566   0.2880859375  0.87643     2785.00000 0.8405       1.594592       0.159454
  35.837   0.2880859375  0.86995     2785.50000 0.8422       1.577987       0.157792
  76.325   0.2880859375  0.75280     3567.00000 0.8776       1.223906       0.122391
  81.132   0.2880859375  0.79014     3568.50000 0.8766       1.234475       0.123444
  83.087   0.2880859375  0.78738     3569.00000 0.8829       1.171469       0.117144
  86.018   0.2880859375  0.78458     3569.50000 0.8923       1.077059       0.107704
  90.176   0.2880859375  0.78774     3570.00000 0.9022       0.977895       0.097788
  86.908   0.2880859375  0.86120     4026.00000 0.8835       1.165252       0.116515
  77.225   0.2880859375  0.86089     4028.00000 0.9014       0.985917       0.098586
  76.668   0.2880859375  0.85953     4028.50000 0.9099       0.900718       0.090070
  87.257   0.2880859375  0.80245     4030.50000 0.9415       0.585484       0.058548
  83.989   0.2880859375  0.75820     4031.00000 0.9296       0.703714       0.070370
  88.758   0.2927246094  0.84811     2523.00000 0.8977       1.022657       0.102251
  47.674   0.2927246094  0.77360     2783.50000 0.8180       1.820317       0.182032
  44.670   0.2927246094  0.82718     2784.00000 0.8346       1.654120       0.165411
  41.541   0.2927246094  0.86268     2784.50000 0.8403       1.596746       0.159672
  38.539   0.2927246094  0.87561     2785.00000 0.8414       1.585853       0.158581
  35.792   0.2927246094  0.86905     2785.50000 0.8431       1.569547       0.156948
  81.043   0.2927246094  0.78518     3568.50000 0.8763       1.236646       0.123661
  82.978   0.2927246094  0.78515     3569.00000 0.8829       1.171149       0.117112
  85.911   0.2927246094  0.78234     3569.50000 0.8928       1.072491       0.107247
  90.117   0.2927246094  0.78508     3570.00000 0.9032       0.968068       0.096805
  86.803   0.2927246094  0.87025     4026.00000 0.8831       1.168858       0.116877
  77.074   0.2927246094  0.86651     4028.00000 0.9017       0.982737       0.098267
  76.583   0.2927246094  0.86487     4028.50000 0.9104       0.896294       0.089628
  87.699   0.2927246094  0.80238     4030.50000 0.9426       0.574087       0.057409
  84.130   0.2927246094  0.76072     4031.00000 0.9305       0.695112       0.069510
  89.323   0.2973632812  0.83245     2523.00000 0.8982       1.018566       0.101843
  47.708   0.2973632812  0.76882     2783.50000 0.8176       1.824121       0.182412
  44.693   0.2973632812  0.82405     2784.00000 0.8353       1.647403       0.164740
  41.536   0.2973632812  0.86075     2784.50000 0.8412       1.587749       0.158773
  38.505   0.2973632812  0.87420     2785.00000 0.8423       1.577067       0.157703
  35.735   0.2973632812  0.86758     2785.50000 0.8439       1.561278       0.156122
  80.960   0.2973632812  0.77887     3568.50000 0.8761       1.239050       0.123900
  82.877   0.2973632812  0.78284     3569.00000 0.8829       1.171228       0.117119
  85.811   0.2973632812  0.78014     3569.50000 0.8932       1.068418       0.106840
  90.065   0.2973632812  0.78247     3570.00000 0.9041       0.958774       0.095876
  86.747   0.2973632812  0.87604     4026.00000 0.8829       1.170895       0.117082
  76.924   0.2973632812  0.86869     4028.00000 0.9020       0.979745       0.097968
  76.499   0.2973632812  0.86693     4028.50000 0.9108       0.892202       0.089219
  88.152   0.2973632812  0.80120     4030.50000 0.9437       0.562527       0.056253
  84.257   0.2973632812  0.76197     4031.00000 0.9314       0.686156       0.068614
  89.824   0.3020019531  0.81301     2523.00000 0.8984       1.015863       0.101573
  47.737   0.3020019531  0.81710     2783.50000 0.8174       1.825554       0.182554
  44.714   0.3020019531  0.86207     2784.00000 0.8360       1.639681       0.163968
  41.528   0.3020019531  0.88632     2784.50000 0.8422       1.578424       0.157841
  38.465   0.3020019531  0.89347     2785.00000 0.8432       1.568297       0.156827
  35.669   0.3020019531  0.88691     2785.50000 0.8447       1.553208       0.155316
  82.780   0.3020019531  0.77302     3569.00000 0.8828       1.171695       0.117166
  85.717   0.3020019531  0.76874     3569.50000 0.8935       1.064825       0.106480
  90.019   0.3020019531  0.77375     3570.00000 0.9050       0.950001       0.094998
  86.736   0.3020019531  0.93137     4026.00000 0.8829       1.171363       0.117129
  76.775   0.3020019531  0.90280     4028.00000 0.9023       0.976998       0.097693
  76.416   0.3020019531  0.88604     4028.50000 0.9112       0.888480       0.088846
  88.619   0.3020019531  0.82631     4030.50000 0.9449       0.550847       0.055085
  84.370   0.3020019531  0.79141     4031.00000 0.9323       0.676894       0.067688
  79.254   0.3020019531  0.75005     4031.50000 0.9059       0.941218       0.094118
  90.264   0.3066406250  0.79919     2523.00000 0.8986       1.014417       0.101428
  47.763   0.3066406250  0.81011     2783.50000 0.8175       1.824835       0.182482
  44.735   0.3066406250  0.85585     2784.00000 0.8369       1.631129       0.163113
  41.518   0.3066406250  0.88053     2784.50000 0.8431       1.568876       0.156887
  38.420   0.3066406250  0.88814     2785.00000 0.8440       1.559600       0.155957
  35.594   0.3066406250  0.88204     2785.50000 0.8455       1.545363       0.154532
  82.689   0.3066406250  0.77075     3569.00000 0.8827       1.172539       0.117250
  85.629   0.3066406250  0.76612     3569.50000 0.8938       1.061695       0.106167
  89.979   0.3066406250  0.77086     3570.00000 0.9058       0.941736       0.094172
  86.768   0.3066406250  0.93431     4026.00000 0.8830       1.170280       0.117022
  76.625   0.3066406250  0.90133     4028.00000 0.9026       0.974542       0.097447
  76.333   0.3066406250  0.88268     4028.50000 0.9115       0.885166       0.088515
  89.102   0.3066406250  0.82245     4030.50000 0.9461       0.539085       0.053908
  84.470   0.3066406250  0.78838     4031.00000 0.9333       0.667366       0.066735
  90.644   0.3112792969  0.78680     2523.00000 0.8986       1.014108       0.101398
  47.788   0.3112792969  0.79983     2783.50000 0.8178       1.822198       0.182218
  44.756   0.3112792969  0.84618     2784.00000 0.8378       1.621908       0.162191
  41.507   0.3112792969  0.87120     2784.50000 0.8441       1.559197       0.155919
  38.371   0.3112792969  0.87925     2785.00000 0.8449       1.551022       0.155100
  35.511   0.3112792969  0.87367     2785.50000 0.8462       1.537761       0.153772
  82.602   0.3112792969  0.76852     3569.00000 0.8826       1.173745       0.117371
  85.545   0.3112792969  0.76354     3569.50000 0.8941       1.059007       0.105898
  89.944   0.3112792969  0.76801     3570.00000 0.9066       0.933959       0.093394
  76.474   0.3112792969  0.89903     4028.00000 0.9028       0.972418       0.097235
  76.250   0.3112792969  0.87908     4028.50000 0.9118       0.882283       0.088227
  89.604   0.3112792969  0.81787     4030.50000 0.9473       0.527276       0.052728
  84.559   0.3112792969  0.78447     4031.00000 0.9342       0.657611       0.065759
  90.967   0.3159179688  0.77552     2523.00000 0.8985       1.014829       0.101470
  47.812   0.3159179688  0.78350     2783.50000 0.8182       1.817880       0.181785
  44.778   0.3159179688  0.82999     2784.00000 0.8388       1.612168       0.161217
  38.318   0.3159179688  0.86345     2785.00000 0.8457       1.542603       0.154259
  35.422   0.3159179688  0.85836     2785.50000 0.8470       1.530419       0.153038
  82.519   0.3159179688  0.76630     3569.00000 0.8825       1.175299       0.117526
  85.466   0.3159179688  0.76100     3569.50000 0.8943       1.056745       0.105672
  89.914   0.3159179688  0.76520     3570.00000 0.9073       0.926652       0.092663
  76.321   0.3159179688  0.89612     4028.00000 0.9029       0.970660       0.097059
  76.167   0.3159179688  0.87523     4028.50000 0.9120       0.879852       0.087984
  90.125   0.3159179688  0.81262     4030.50000 0.9485       0.515452       0.051545
  84.636   0.3159179688  0.77975     4031.00000 0.9352       0.647669       0.064765
  91.235   0.3205566406  0.76506     2523.00000 0.8984       1.016484       0.101636
  88.127   0.3205566406  0.76564     2523.50000 0.9027       0.973236       0.097323
  47.837   0.3205566406  0.75771     2783.50000 0.8188       1.812122       0.181209
  38.264   0.3205566406  0.83550     2785.00000 0.8466       1.534376       0.153436
  35.328   0.3205566406  0.83052     2785.50000 0.8477       1.523349       0.152331
  82.439   0.3205566406  0.76409     3569.00000 0.8823       1.177184       0.117714
  85.391   0.3205566406  0.75848     3569.50000 0.8945       1.054885       0.105486
  89.890   0.3205566406  0.76242     3570.00000 0.9080       0.919796       0.091978
  76.165   0.3205566406  0.89273     4028.00000 0.9031       0.969297       0.096922
  76.083   0.3205566406  0.87111     4028.50000 0.9122       0.877887       0.087787
  90.668   0.3205566406  0.80675     4030.50000 0.9496       0.503641       0.050364
  84.703   0.3205566406  0.77428     4031.00000 0.9362       0.637572       0.063755
  47.864   0.3251953125  0.76709     2783.50000 0.8195       1.805151       0.180511
  38.207   0.3251953125  0.80253     2785.00000 0.8474       1.526368       0.152636
  35.229   0.3251953125  0.80004     2785.50000 0.8483       1.516559       0.151653
  82.363   0.3251953125  0.75431     3569.00000 0.8821       1.179384       0.117934
  85.320   0.3251953125  0.75221     3569.50000 0.8947       1.053406       0.105338
  89.870   0.3251953125  0.75848     3570.00000 0.9087       0.913369       0.091335
  75.998   0.3251953125  0.89706     4028.50000 0.9124       0.876398       0.087638
  91.236   0.3251953125  0.83105     4030.50000 0.9508       0.491864       0.049186
  84.761   0.3251953125  0.79350     4031.00000 0.9373       0.627350       0.062733
  78.231   0.3251953125  0.75535     4031.50000 0.9079       0.920992       0.092094
  47.894   0.3298339844  0.78273     2783.50000 0.8203       1.797180       0.179713
  38.150   0.3298339844  0.81435     2785.00000 0.8481       1.518600       0.151859
  35.126   0.3298339844  0.81097     2785.50000 0.8490       1.510058       0.151003
  82.289   0.3298339844  0.75188     3569.00000 0.8818       1.181883       0.118184
  89.855   0.3298339844  0.75553     3570.00000 0.9093       0.907347       0.090733
  75.911   0.3298339844  0.89255     4028.50000 0.9125       0.875391       0.087538
  91.832   0.3298339844  0.82444     4030.50000 0.9520       0.480147       0.048015
  84.810   0.3298339844  0.78619     4031.00000 0.9383       0.617036       0.061701
  47.927   0.3344726562  0.83071     2783.50000 0.8212       1.788408       0.178835
  38.093   0.3344726562  0.86112     2785.00000 0.8489       1.511090       0.151109
  35.020   0.3344726562  0.85757     2785.50000 0.8496       1.503849       0.150382
  89.844   0.3344726562  0.75260     3570.00000 0.9098       0.901708       0.090169
  75.822   0.3344726562  0.88779     4028.50000 0.9125       0.874867       0.087485
  92.457   0.3344726562  0.81731     4030.50000 0.9531       0.468507       0.046851
  84.851   0.3344726562  0.77828     4031.00000 0.9393       0.606659       0.060664
  38.035   0.3391113281  0.88595     2785.00000 0.8496       1.503850       0.150385
  34.912   0.3391113281  0.88314     2785.50000 0.8502       1.497935       0.149791
  75.731   0.3391113281  0.88278     4028.50000 0.9125       0.874823       0.087481
  93.114   0.3391113281  0.80968     4030.50000 0.9543       0.456964       0.045696
  84.885   0.3391113281  0.76980     4031.00000 0.9404       0.596242       0.059622
  37.978   0.3437500000  0.89379     2785.00000 0.8503       1.496890       0.149689
  34.802   0.3437500000  0.89180     2785.50000 0.8508       1.492319       0.149230
  96.431   0.3437500000  0.76505     3570.50000 0.9240       0.760488       0.076046
  75.638   0.3437500000  0.87749     4028.50000 0.9125       0.875254       0.087524
  93.807   0.3437500000  0.80155     4030.50000 0.9554       0.445533       0.044553
  84.913   0.3437500000  0.76078     4031.00000 0.9414       0.585811       0.058578
  53.349   0.3483886719  0.75883     2701.00000 0.7758       2.241805       0.224180
  37.923   0.3483886719  0.88532     2785.00000 0.8510       1.490217       0.149022
  34.691   0.3483886719  0.88454     2785.50000 0.8513       1.487001       0.148698
 -11.558   0.3483886719  0.78379     3122.50000 0.9404       0.595944       0.059591
  89.839   0.3483886719  0.75277     3570.00000 0.9113       0.886862       0.088685
  96.578   0.3483886719  0.77652     3570.50000 0.9249       0.751056       0.075103
  75.543   0.3483886719  0.91030     4028.50000 0.9124       0.876153       0.087614
  94.538   0.3483886719  0.82795     4030.50000 0.9566       0.434231       0.043423
  84.936   0.3483886719  0.78486     4031.00000 0.9425       0.575386       0.057536
  53.358   0.3530273438  0.75763     2701.00000 0.7756       2.244416       0.224442
  34.579   0.3530273438  0.80486     2785.50000 0.8518       1.481980       0.148196
 -11.692   0.3530273438  0.77643     3122.50000 0.9409       0.591327       0.059129
  89.846   0.3530273438  0.75007     3570.00000 0.9117       0.882528       0.088251
  96.732   0.3530273438  0.77406     3570.50000 0.9258       0.741968       0.074195
  75.444   0.3530273438  0.90500     4028.50000 0.9122       0.877516       0.087750
  95.309   0.3530273438  0.82000     4030.50000 0.9577       0.423068       0.042307
  84.954   0.3530273438  0.77526     4031.00000 0.9435       0.564989       0.056496
  53.368   0.3576660156  0.75566     2701.00000 0.7752       2.248163       0.224816
  34.468   0.3576660156  0.89253     2785.50000 0.8523       1.477256       0.147724
 -11.839   0.3576660156  0.76874     3122.50000 0.9413       0.586852       0.058682
  96.894   0.3576660156  0.77160     3570.50000 0.9267       0.733202       0.073318
