  46.668   0.1628417969  0.89093      343.50000 0.9348       0.651597       0.065159
  43.416   0.1628417969  0.78973      469.00000 0.8979       1.020659       0.102059
  41.355   0.1628417969  0.78987      469.50000 0.9003       0.997376       0.099730
  38.122   0.1628417969  0.79043      470.00000 0.9049       0.950721       0.095065
  33.958   0.1628417969  0.79069      470.50000 0.9105       0.895356       0.089531
  29.562   0.1628417969  0.79003      471.00000 0.9150       0.849515       0.084950
  26.106   0.1628417969  0.78767      471.50000 0.9171       0.828655       0.082865
  24.702   0.1628417969  0.78303      472.00000 0.9158       0.841894       0.084185
  54.673   0.1628417969  0.89252      810.50000 0.8806       1.194224       0.119420
  55.180   0.1628417969  0.89955      811.00000 0.8970       1.029631       0.102960
  54.985   0.1628417969  0.90530      811.50000 0.9107       0.892743       0.089272
  67.012   0.1628417969  0.84748      818.50000 0.8753       1.247196       0.124706
  66.969   0.1628417969  0.85328      819.00000 0.8794       1.206368       0.120630
  65.993   0.1628417969  0.86075      819.50000 0.8795       1.204627       0.120459
  64.496   0.1628417969  0.86904      820.00000 0.8741       1.258719       0.125868
  63.078   0.1628417969  0.87718      820.50000 0.8619       1.381463       0.138139
  72.627   0.1628417969  0.92858      828.00000 0.8733       1.267136       0.126710
  31.382   0.1628417969  0.82026     1962.50000 0.8234       1.765891       0.176588
  31.303   0.1628417969  0.82474     1963.00000 0.8252       1.747520       0.174750
  42.187   0.1628417969  0.83919     2179.50000 0.9312       0.688469       0.068845
  47.150   0.1628417969  0.83695     2180.00000 0.9216       0.784564       0.078450
  61.435   0.1628417969  0.91799     2189.50000 0.7313       2.686824       0.268682
  74.024   0.1628417969  0.79515     2441.50000 0.9247       0.753336       0.075333
  38.173   0.1628417969  0.84008     3050.00000 0.8185       1.815410       0.181539
  42.890   0.1628417969  0.83609     3154.00000 0.8465       1.535478       0.153544
  41.846   0.1628417969  0.82686     3154.50000 0.8482       1.517718       0.151765
  34.972   0.1674804688  0.85734      341.50000 0.9144       0.856056       0.085601
  37.598   0.1674804688  0.85953      342.00000 0.9199       0.801281       0.080124
  40.775   0.1674804688  0.86424      342.50000 0.9265       0.734868       0.073484
  44.172   0.1674804688  0.86960      343.00000 0.9323       0.677349       0.067734
  47.019   0.1674804688  0.87281      343.50000 0.9353       0.646659       0.064666
  48.390   0.1674804688  0.87234      344.00000 0.9345       0.655304       0.065530
  44.210   0.1674804688  0.77564      469.00000 0.8996       1.003649       0.100358
  42.143   0.1674804688  0.77602      469.50000 0.9020       0.980432       0.098036
  38.874   0.1674804688  0.77680      470.00000 0.9066       0.933639       0.093358
  34.619   0.1674804688  0.77704      470.50000 0.9122       0.878187       0.087815
  30.070   0.1674804688  0.77595      471.00000 0.9167       0.832917       0.083291
  26.429   0.1674804688  0.77275      471.50000 0.9186       0.813995       0.081399
  24.853   0.1674804688  0.76714      472.00000 0.9169       0.831045       0.083099
   4.211   0.1674804688  0.77768      485.50000 0.7938       2.062525       0.206234
   4.511   0.1674804688  0.77979      486.00000 0.7792       2.207899       0.220783
  55.135   0.1674804688  0.87208      810.50000 0.8819       1.181050       0.118100
  56.004   0.1674804688  0.88522      811.00000 0.8977       1.022709       0.102266
  56.204   0.1674804688  0.89540      811.50000 0.9109       0.891302       0.089127
  67.094   0.1674804688  0.83448      818.50000 0.8806       1.193630       0.119352
  67.108   0.1674804688  0.84057      819.00000 0.8847       1.152968       0.115292
  66.119   0.1674804688  0.84986      819.50000 0.8846       1.153740       0.115371
  64.578   0.1674804688  0.86093      820.00000 0.8785       1.214811       0.121478
  63.151   0.1674804688  0.87191      820.50000 0.8646       1.354166       0.135411
  62.335   0.1674804688  0.88117      821.00000 0.8411       1.589646       0.158946
  73.197   0.1674804688  0.90131      828.00000 0.8778       1.221848       0.122180
  70.500   0.1674804688  0.90659      828.50000 0.8796       1.204484       0.120448
  30.729   0.1674804688  0.81298     1962.50000 0.8293       1.707082       0.170708
  30.551   0.1674804688  0.81762     1963.00000 0.8318       1.682264       0.168224
  41.116   0.1674804688  0.80390     2179.50000 0.9339       0.660662       0.066065
  46.781   0.1674804688  0.80142     2180.00000 0.9240       0.759987       0.075994
  61.485   0.1674804688  0.91033     2189.00000 0.7374       2.626097       0.262606
  60.931   0.1674804688  0.91027     2189.50000 0.7245       2.755455       0.275545
  38.307   0.1674804688  0.75435     2678.50000 0.9807       0.193336       0.019332
  38.383   0.1674804688  0.75748     3050.00000 0.8259       1.740590       0.174056
  43.490   0.1674804688  0.80378     3154.00000 0.8544       1.456299       0.145626
  42.344   0.1674804688  0.79373     3154.50000 0.8561       1.439393       0.143932
  34.276   0.1721191406  0.82644      341.50000 0.9150       0.849542       0.084950
  37.166   0.1721191406  0.83187      342.00000 0.9206       0.793530       0.079350
  40.649   0.1721191406  0.83893      342.50000 0.9274       0.726297       0.072628
  44.375   0.1721191406  0.84499      343.00000 0.9331       0.669154       0.066914
  47.494   0.1721191406  0.84804      343.50000 0.9360       0.640475       0.064047
  48.976   0.1721191406  0.84721      344.00000 0.9347       0.652758       0.065276
  45.007   0.1721191406  0.75586      469.00000 0.9012       0.988070       0.098801
  42.944   0.1721191406  0.75514      469.50000 0.9035       0.964788       0.096472
  39.646   0.1721191406  0.75556      470.00000 0.9083       0.917381       0.091733
  35.302   0.1721191406  0.75601      470.50000 0.9139       0.861039       0.086101
  30.593   0.1721191406  0.75707      471.00000 0.9185       0.815316       0.081531
  26.753   0.1721191406  0.75907      471.50000 0.9203       0.797251       0.079725
  25.003   0.1721191406  0.76100      472.00000 0.9183       0.817141       0.081707
  55.616   0.1721191406  0.86568      810.50000 0.8834       1.166300       0.116622
  56.844   0.1721191406  0.88221      811.00000 0.8986       1.014501       0.101443
  57.450   0.1721191406  0.89214      811.50000 0.9111       0.889294       0.088924
  67.171   0.1721191406  0.83379      818.50000 0.8861       1.139084       0.113900
  67.256   0.1721191406  0.84501      819.00000 0.8903       1.097058       0.109702
  66.256   0.1721191406  0.85597      819.50000 0.8902       1.097650       0.109763
  64.663   0.1721191406  0.86505      820.00000 0.8839       1.161183       0.116117
  63.226   0.1721191406  0.87276      820.50000 0.8690       1.310255       0.131021
  62.501   0.1721191406  0.87961      821.00000 0.8424       1.575803       0.157564
  73.713   0.1721191406  0.84555      828.00000 0.8824       1.175908       0.117585
  71.171   0.1721191406  0.84941      828.50000 0.8836       1.163974       0.116397
  30.155   0.1721191406  0.80843     1962.50000 0.8351       1.649003       0.164900
  29.867   0.1721191406  0.81418     1963.00000 0.8382       1.618078       0.161806
  39.898   0.1721191406  0.75462     2179.50000 0.9370       0.630363       0.063036
  46.357   0.1721191406  0.75369     2180.00000 0.9267       0.733251       0.073322
  52.501   0.1721191406  0.75259     2180.50000 0.9082       0.918240       0.091818
  60.132   0.1721191406  0.75129     2181.50000 0.8581       1.418866       0.141872
  61.070   0.1721191406  0.90152     2189.00000 0.7311       2.689468       0.268941
  60.491   0.1721191406  0.90263     2189.50000 0.7171       2.829173       0.282917
  64.503   0.1721191406  0.75106     2796.50000 0.8456       1.543647       0.154364
  43.331   0.1721191406  0.84637     3038.50000 0.7558       2.442357       0.244217
  33.268   0.1721191406  0.87445     3259.50000 0.8942       1.058201       0.105820
  31.069   0.1767578125  0.76403      341.00000 0.9130       0.870352       0.087030
  33.607   0.1767578125  0.76980      341.50000 0.9156       0.844298       0.084427
  36.773   0.1767578125  0.77713      342.00000 0.9214       0.786449       0.078643
  40.583   0.1767578125  0.78394      342.50000 0.9282       0.717743       0.071773
  44.671   0.1767578125  0.78894      343.00000 0.9340       0.660353       0.066035
  48.092   0.1767578125  0.79153      343.50000 0.9367       0.633174       0.063317
  49.694   0.1767578125  0.79122      344.00000 0.9351       0.648739       0.064874
  25.155   0.1767578125  0.75466      472.00000 0.9200       0.800503       0.080042
  56.092   0.1767578125  0.85803      810.50000 0.8850       1.150090       0.114998
  57.673   0.1767578125  0.86990      811.00000 0.8995       1.004889       0.100479
  58.698   0.1767578125  0.87581      811.50000 0.9114       0.886476       0.088640
  67.250   0.1767578125  0.83879      818.50000 0.8915       1.084870       0.108480
  67.423   0.1767578125  0.85632      819.00000 0.8960       1.040428       0.104040
  66.413   0.1767578125  0.86689      819.50000 0.8961       1.038638       0.103863
  64.756   0.1767578125  0.87068      820.00000 0.8900       1.100282       0.110027
  63.302   0.1767578125  0.87153      820.50000 0.8749       1.250667       0.125063
  74.163   0.1767578125  0.80064      828.00000 0.8870       1.130177       0.113010
  71.774   0.1767578125  0.80123      828.50000 0.8877       1.122770       0.112276
  29.661   0.1767578125  0.80376     1962.50000 0.8408       1.591729       0.159173
  29.254   0.1767578125  0.80933     1963.00000 0.8445       1.555193       0.155517
  60.711   0.1767578125  0.89205     2189.00000 0.7249       2.750985       0.275090
  60.845   0.1767578125  0.76187     2795.50000 0.9086       0.914147       0.091413
  63.053   0.1767578125  0.75604     2796.00000 0.8775       1.224983       0.122498
  64.265   0.1767578125  0.75400     2796.50000 0.8384       1.616063       0.161605
  64.953   0.1767578125  0.75445     2797.00000 0.7929       2.071554       0.207142
  46.628   0.1767578125  0.81029     3038.50000 0.7694       2.306448       0.230643
  30.257   0.1767578125  0.84603     3259.50000 0.8955       1.044568       0.104456
  22.712   0.1767578125  0.84641     3260.00000 0.9069       0.930729       0.093068
  88.597   0.1767578125  0.76469     3904.50000 0.7973       2.026687       0.202656
  56.539   0.1813964844  0.82653      810.50000 0.8868       1.132563       0.113241
  58.462   0.1813964844  0.84043      811.00000 0.9006       0.993740       0.099361
  59.918   0.1813964844  0.84754      811.50000 0.9118       0.882500       0.088240
  65.749   0.1813964844  0.79204      818.00000 0.8899       1.101340       0.110122
  67.343   0.1813964844  0.81567      818.50000 0.8968       1.032083       0.103203
  67.621   0.1813964844  0.83815      819.00000 0.9015       0.984649       0.098463
  66.599   0.1813964844  0.85109      819.50000 0.9021       0.978955       0.097895
  64.864   0.1813964844  0.85441      820.00000 0.8965       1.035199       0.103519
  74.537   0.1813964844  0.78827      828.00000 0.8915       1.085345       0.108526
  72.295   0.1813964844  0.78781      828.50000 0.8919       1.081455       0.108144
  71.963   0.1813964844  0.76186      829.00000 0.8859       1.141204       0.114118
  28.714   0.1813964844  0.79708     1963.00000 0.8506       1.493781       0.149376
  60.399   0.1813964844  0.87973     2189.00000 0.7193       2.807472       0.280735
  35.572   0.1813964844  0.75381     2793.00000 0.9621       0.378789       0.037876
  38.200   0.1813964844  0.76403     2793.50000 0.9633       0.367387       0.036736
  56.858   0.1813964844  0.76418     2795.00000 0.9348       0.652055       0.065202
  60.626   0.1813964844  0.75955     2795.50000 0.9106       0.893750       0.089373
  62.791   0.1813964844  0.75729     2796.00000 0.8775       1.225358       0.122536
  27.093   0.1813964844  0.81257     3259.50000 0.8963       1.036577       0.103656
  18.301   0.1813964844  0.81368     3260.00000 0.9076       0.923881       0.092384
  61.080   0.1860351562  0.80547      811.50000 0.9123       0.876994       0.087687
  65.639   0.1860351562  0.77582      818.00000 0.8947       1.053363       0.105327
  67.465   0.1860351562  0.81242      818.50000 0.9018       0.981548       0.098151
  67.863   0.1860351562  0.83640      819.00000 0.9069       0.930943       0.093093
  66.828   0.1860351562  0.84363      819.50000 0.9079       0.920518       0.092052
  74.827   0.1860351562  0.75007      828.00000 0.8958       1.041937       0.104184
  28.250   0.1860351562  0.78612     1963.00000 0.8566       1.433967       0.143395
  60.127   0.1860351562  0.86788     2189.00000 0.7144       2.856079       0.285593
  42.978   0.1860351562  0.75523     2794.00000 0.9637       0.363429       0.036340
  50.452   0.1860351562  0.75681     2794.50000 0.9546       0.453731       0.045370
  56.457   0.1860351562  0.75386     2795.00000 0.9383       0.616782       0.061676
  23.814   0.1860351562  0.77218     3259.50000 0.8965       1.034932       0.103490
  13.657   0.1860351562  0.77358     3260.00000 0.9075       0.925068       0.092503
  27.862   0.1906738281  0.76564     1963.00000 0.8624       1.375852       0.137584
  69.019   0.1999511719  0.75143      819.00000 0.9211       0.788999       0.078900
  67.925   0.1999511719  0.75623      819.50000 0.9236       0.764375       0.076438
  59.929   0.1999511719  0.79451     2188.50000 0.7376       2.623901       0.262356
  22.674   0.2045898438  0.82455       98.50000 0.9191       0.808813       0.080881
  23.654   0.2045898438  0.85798       99.00000 0.9207       0.793159       0.079315
  59.680   0.2045898438  0.76246     2188.50000 0.7366       2.634539       0.263417
  22.958   0.2092285156  0.80569       98.50000 0.9192       0.807954       0.080795
  23.968   0.2092285156  0.85186       99.00000 0.9206       0.793588       0.079358
  23.235   0.2138671875  0.84313       98.50000 0.9193       0.807225       0.080723
  24.267   0.2138671875  0.85005       99.00000 0.9206       0.794289       0.079428
  23.508   0.2185058594  0.83179       98.50000 0.9193       0.806660       0.080666
  24.551   0.2185058594  0.84403       99.00000 0.9205       0.795258       0.079525
  23.779   0.2231445312  0.84410       98.50000 0.9194       0.806288       0.080629
  24.823   0.2231445312  0.84025       99.00000 0.9204       0.796487       0.079648
  26.908   0.2231445312  0.84364       99.50000 0.9216       0.783706       0.078368
  24.048   0.2277832031  0.83883       98.50000 0.9194       0.806134       0.080613
  25.084   0.2277832031  0.83321       99.00000 0.9202       0.797966       0.079796
  27.163   0.2277832031  0.83586       99.50000 0.9214       0.786223       0.078620
  24.317   0.2324218750  0.83466       98.50000 0.9194       0.806219       0.080622
  25.333   0.2324218750  0.82536       99.00000 0.9200       0.799677       0.079967
  27.398   0.2324218750  0.82657       99.50000 0.9211       0.788935       0.078892
  24.585   0.2370605469  0.83499       98.50000 0.9193       0.806553       0.080655
  25.572   0.2370605469  0.83053       99.00000 0.9198       0.801602       0.080160
  27.612   0.2370605469  0.84096       99.50000 0.9208       0.791797       0.079178
  24.853   0.2416992188  0.83280       98.50000 0.9193       0.807144       0.080714
  25.801   0.2416992188  0.82175       99.00000 0.9196       0.803719       0.080372
  27.808   0.2416992188  0.83157       99.50000 0.9205       0.794765       0.079475
  25.120   0.2463378906  0.75595       98.50000 0.9192       0.807994       0.080799
  26.020   0.2463378906  0.81182       99.00000 0.9194       0.806004       0.080600
  27.985   0.2463378906  0.82058       99.50000 0.9202       0.797797       0.079778
  25.384   0.2509765625  0.81548       98.50000 0.9191       0.809098       0.080909
  26.229   0.2509765625  0.83812       99.00000 0.9192       0.808431       0.080843
  28.146   0.2509765625  0.85956       99.50000 0.9199       0.800855       0.080084
  25.646   0.2556152344  0.80598       98.50000 0.9190       0.810449       0.081044
  26.427   0.2556152344  0.82869       99.00000 0.9189       0.810976       0.081097
  28.291   0.2556152344  0.85041       99.50000 0.9196       0.803901       0.080388
  26.041   0.2602539062  0.76220       98.00000 0.9205       0.794788       0.079474
  25.904   0.2602539062  0.79800       98.50000 0.9188       0.812036       0.081203
  26.614   0.2602539062  0.81791       99.00000 0.9186       0.813611       0.081361
  28.422   0.2602539062  0.83981       99.50000 0.9193       0.806905       0.080688
  19.263   0.2602539062  0.81841     1956.50000 0.8119       1.881251       0.188107
  26.374   0.2648925781  0.78648       98.00000 0.9206       0.794538       0.079448
  26.156   0.2648925781  0.80344       98.50000 0.9186       0.813842       0.081383
  26.791   0.2648925781  0.84976       99.00000 0.9184       0.816312       0.081631
  28.538   0.2648925781  0.87916       99.50000 0.9190       0.809836       0.080981
  28.136   0.2648925781  0.76273      105.00000 0.8799       1.201545       0.120147
  19.448   0.2648925781  0.80508     1956.50000 0.8165       1.835243       0.183510
 179.723   0.2648925781  0.75013     2843.00000 0.9153       0.847021       0.084700
  26.709   0.2695312500  0.77531       98.00000 0.9205       0.794645       0.079459
  26.402   0.2695312500  0.78936       98.50000 0.9184       0.815851       0.081584
  26.956   0.2695312500  0.83809       99.00000 0.9181       0.819054       0.081905
  28.640   0.2695312500  0.86992       99.50000 0.9187       0.812668       0.081264
  19.633   0.2695312500  0.77943     1956.50000 0.8210       1.790503       0.179038
  26.641   0.2741699219  0.77411       98.50000 0.9182       0.818046       0.081804
  27.109   0.2741699219  0.82503       99.00000 0.9178       0.821813       0.082181
  28.730   0.2741699219  0.85967       99.50000 0.9185       0.815378       0.081535
  19.815   0.2741699219  0.75113     1956.50000 0.8253       1.747193       0.174709
  26.872   0.2788085938  0.75787       98.50000 0.9180       0.820407       0.082040
  27.251   0.2788085938  0.81069       99.00000 0.9175       0.824568       0.082457
  28.808   0.2788085938  0.84851       99.50000 0.9182       0.817948       0.081792
  27.093   0.2834472656  0.78283       98.50000 0.9177       0.822914       0.082290
  27.381   0.2834472656  0.83423       99.00000 0.9173       0.827298       0.082730
  28.874   0.2834472656  0.84812       99.50000 0.9180       0.820362       0.082033
-175.451   0.2834472656  0.78707     2843.00000 0.9331       0.668855       0.066882
  27.305   0.2880859375  0.76557       98.50000 0.9174       0.825547       0.082554
  27.499   0.2880859375  0.82078       99.00000 0.9170       0.829986       0.082998
  28.929   0.2880859375  0.83613       99.50000 0.9177       0.822605       0.082258
  31.525   0.2880859375  0.82956      100.00000 0.9181       0.819184       0.081913
-174.125   0.2880859375  0.77887     2843.00000 0.9367       0.632796       0.063276
  27.604   0.2927246094  0.80665       99.00000 0.9167       0.832615       0.083261
  28.973   0.2927246094  0.82396       99.50000 0.9175       0.824671       0.082464
  31.532   0.2927246094  0.81795      100.00000 0.9179       0.820970       0.082091
-172.625   0.2927246094  0.79309     2842.50000 0.9591       0.409392       0.040938
  27.697   0.2973632812  0.79188       99.00000 0.9165       0.835172       0.083517
  29.008   0.2973632812  0.81174       99.50000 0.9173       0.826551       0.082652
  31.534   0.2973632812  0.80647      100.00000 0.9178       0.822504       0.082244
-170.891   0.2973632812  0.77884     2842.50000 0.9610       0.389858       0.038984
  27.870   0.3020019531  0.76553       98.50000 0.9166       0.834017       0.083400
  27.778   0.3020019531  0.78811       99.00000 0.9162       0.837645       0.083764
  29.032   0.3020019531  0.78960       99.50000 0.9172       0.828239       0.082820
  31.530   0.3020019531  0.80683      100.00000 0.9176       0.823789       0.082373
-169.110   0.3020019531  0.76159     2842.50000 0.9628       0.371707       0.037169
  27.845   0.3066406250  0.77569       99.00000 0.9160       0.840024       0.084002
  29.047   0.3066406250  0.77803       99.50000 0.9170       0.829735       0.082969
  31.522   0.3066406250  0.79806      100.00000 0.9175       0.824829       0.082476
  27.901   0.3112792969  0.76344       99.00000 0.9158       0.842303       0.084230
  29.054   0.3112792969  0.76682       99.50000 0.9169       0.831038       0.083099
  31.511   0.3112792969  0.78981      100.00000 0.9174       0.825627       0.082556
  27.944   0.3159179688  0.75129       99.00000 0.9156       0.844474       0.084447
  29.051   0.3159179688  0.75594       99.50000 0.9168       0.832150       0.083210
  31.497   0.3159179688  0.78204      100.00000 0.9174       0.826189       0.082611
  31.481   0.3205566406  0.77459      100.00000 0.9174       0.826523       0.082644
  29.023   0.3251953125  0.75297       99.50000 0.9166       0.833814       0.083376
  31.463   0.3251953125  0.78108      100.00000 0.9173       0.826637       0.082655
  31.443   0.3298339844  0.77590      100.00000 0.9174       0.826538       0.082645
  31.423   0.3344726562  0.77020      100.00000 0.9174       0.826236       0.082614
  31.403   0.3391113281  0.76365      100.00000 0.9174       0.825738       0.082564
  31.382   0.3437500000  0.75609      100.00000 0.9175       0.825055       0.082495
-126.409   0.3623046875  0.75760     3436.00000 0.8796       1.203947       0.120394
-126.611   0.3669433594  0.76732     3436.00000 0.8768       1.231642       0.123163
-126.801   0.3715820312  0.77556     3436.00000 0.8740       1.259523       0.125952
-126.982   0.3762207031  0.78249     3436.00000 0.8712       1.287598       0.128759
-127.153   0.3808593750  0.78680     3436.00000 0.8684       1.315875       0.131587
-127.315   0.3854980469  0.79050     3436.00000 0.8656       1.344360       0.134435
-127.469   0.3901367188  0.79350     3436.00000 0.8627       1.373058       0.137305
-127.616   0.3947753906  0.79594     3436.00000 0.8598       1.401973       0.140197
-127.756   0.3994140625  0.79793     3436.00000 0.8569       1.431110       0.143110
-127.889   0.4040527344  0.79958     3436.00000 0.8540       1.460469       0.146046
-128.017   0.4086914062  0.80096     3436.00000 0.8510       1.490056       0.149005
-128.139   0.4133300781  0.80216     3436.00000 0.8480       1.519868       0.151986
-128.255   0.4179687500  0.79000     3436.00000 0.8450       1.549909       0.154990
-128.367   0.4226074219  0.79137     3436.00000 0.8420       1.580178       0.158017
-128.475   0.4272460938  0.79279     3436.00000 0.8389       1.610674       0.161067
-128.578   0.4318847656  0.79428     3436.00000 0.8359       1.641397       0.164139
-128.678   0.4365234375  0.79586     3436.00000 0.8328       1.672345       0.167234
-128.773   0.4411621094  0.79755     3436.00000 0.8296       1.703517       0.170351
  26.257   0.4736328125  0.75174       98.50000 0.9062       0.938241       0.093824
  26.065   0.4782714844  0.76569       98.50000 0.9059       0.941320       0.094132
  25.870   0.4829101562  0.78368       98.50000 0.9056       0.944457       0.094445
  25.671   0.4875488281  0.80525       98.50000 0.9052       0.947654       0.094765
  25.469   0.4921875000  0.82854       98.50000 0.9049       0.950912       0.095091
  25.265   0.4968261719  0.85038       98.50000 0.9046       0.954234       0.095423
  25.058   0.5014648438  0.86742       98.50000 0.9042       0.957621       0.095762
  22.744   0.5014648438  0.76338       99.00000 0.9103       0.897231       0.089716
2009  20  3 23 32 350
  47.616   0.1118164062  0.76671      652.50000 0.8402       1.598240       0.159824
  49.604   0.1118164062  0.76768      653.00000 0.8413       1.587096       0.158701
  50.420   0.1164550781  0.79238      652.00000 0.8352       1.648284       0.164814
  51.545   0.1164550781  0.81280      652.50000 0.8385       1.614913       0.161491
  53.040   0.1164550781  0.82218      653.00000 0.8420       1.580543       0.158047
  72.697   0.1210937500  0.75041     3974.00000 0.8635       1.364625       0.136462
  97.793   0.1257324219  0.78853     2559.00000 0.8595       1.405421       0.140525
 100.278   0.1257324219  0.78184     2559.50000 0.8705       1.295543       0.129548
 101.442   0.1257324219  0.76272     2560.00000 0.8838       1.161997       0.116199
  27.871   0.1257324219  0.75225     3658.00000 0.8629       1.371302       0.137127
  71.042   0.1257324219  0.78251     3974.00000 0.8605       1.394511       0.139451
  98.718   0.1303710938  0.81587     2559.00000 0.8615       1.385356       0.138528
 101.049   0.1303710938  0.81087     2559.50000 0.8712       1.288473       0.128845
 102.102   0.1303710938  0.79903     2560.00000 0.8830       1.170089       0.117009
 101.647   0.1303710938  0.77804     2560.50000 0.8941       1.059212       0.105921
  67.301   0.1303710938  0.82383     3080.50000 0.8465       1.535232       0.153519
  73.728   0.1303710938  0.80755     3973.50000 0.8419       1.581504       0.158139
  69.726   0.1303710938  0.80565     3974.00000 0.8587       1.412541       0.141251
  66.265   0.1303710938  0.80456     3979.00000 0.7647       2.352516       0.235251
  66.888   0.1303710938  0.78477     3979.50000 0.7705       2.294884       0.229454
  99.635   0.1350097656  0.83386     2559.00000 0.8636       1.364241       0.136421
 101.879   0.1350097656  0.82773     2559.50000 0.8722       1.278050       0.127805
 102.876   0.1350097656  0.82064     2560.00000 0.8828       1.171565       0.117156
 102.453   0.1350097656  0.80992     2560.50000 0.8928       1.072265       0.107225
 100.759   0.1350097656  0.79089     2561.00000 0.8988       1.012132       0.101211
  66.447   0.1350097656  0.85451     3080.50000 0.8392       1.607727       0.160766
  67.629   0.1350097656  0.84357     3081.00000 0.8329       1.670799       0.167068
  72.789   0.1350097656  0.82317     3973.50000 0.8415       1.584975       0.158477
  68.631   0.1350097656  0.82203     3974.00000 0.8578       1.422293       0.142219
  64.369   0.1350097656  0.82144     3979.00000 0.7678       2.321748       0.232174
  74.726   0.1396484375  0.75610      560.50000 0.7648       2.352597       0.235235
  37.092   0.1396484375  0.76218      955.00000 0.9525       0.475307       0.047531
  97.302   0.1396484375  0.84040     2558.50000 0.8617       1.383082       0.138306
 100.572   0.1396484375  0.84009     2559.00000 0.8657       1.342763       0.134276
 102.779   0.1396484375  0.84056     2559.50000 0.8735       1.265363       0.126536
 103.760   0.1396484375  0.83522     2560.00000 0.8832       1.168186       0.116817
 103.375   0.1396484375  0.82965     2560.50000 0.8922       1.077705       0.107767
 101.784   0.1396484375  0.81908     2561.00000 0.8976       1.024451       0.102442
  65.771   0.1396484375  0.88183     3080.50000 0.8323       1.677176       0.167708
  67.043   0.1396484375  0.87129     3081.00000 0.8285       1.715411       0.171526
  68.027   0.1396484375  0.86035     3081.50000 0.8271       1.728868       0.172865
  61.893   0.1396484375  0.83814     3978.50000 0.7713       2.286727       0.228660
  62.518   0.1396484375  0.83029     3979.00000 0.7720       2.280232       0.228022
  74.138   0.1442871094  0.79014      560.50000 0.7793       2.207378       0.220712
  98.253   0.1442871094  0.84029     2558.50000 0.8645       1.355319       0.135532
 101.539   0.1442871094  0.84057     2559.00000 0.8678       1.321829       0.132183
 103.752   0.1442871094  0.84225     2559.50000 0.8748       1.251580       0.125157
 104.750   0.1442871094  0.84116     2560.00000 0.8839       1.161526       0.116150
 104.411   0.1442871094  0.83532     2560.50000 0.8923       1.077530       0.107748
 102.888   0.1442871094  0.82942     2561.00000 0.8971       1.029309       0.102926
 100.912   0.1442871094  0.82456     2561.50000 0.8958       1.042404       0.104238
  63.674   0.1442871094  0.91496     3080.00000 0.8280       1.720301       0.172020
  65.259   0.1442871094  0.90574     3080.50000 0.8264       1.736130       0.173600
  66.624   0.1442871094  0.89618     3081.00000 0.8254       1.745979       0.174580
  67.691   0.1442871094  0.88614     3081.50000 0.8259       1.741690       0.174144
  60.303   0.1442871094  0.83616     3978.50000 0.7755       2.245085       0.224495
  60.683   0.1442871094  0.83389     3979.00000 0.7770       2.230141       0.223012
  99.202   0.1489257812  0.83545     2558.50000 0.8670       1.329901       0.132990
 102.543   0.1489257812  0.83742     2559.00000 0.8698       1.302376       0.130237
 104.799   0.1489257812  0.83969     2559.50000 0.8762       1.237829       0.123780
 105.843   0.1489257812  0.84060     2560.00000 0.8847       1.152990       0.115294
 105.559   0.1489257812  0.79974     2560.50000 0.8927       1.073398       0.107334
 104.082   0.1489257812  0.79958     2561.00000 0.8972       1.028425       0.102837
 102.098   0.1489257812  0.80431     2561.50000 0.8956       1.043541       0.104351
  63.229   0.1489257812  0.93130     3080.00000 0.8194       1.806372       0.180623
  58.700   0.1489257812  0.83193     3978.50000 0.7803       2.196961       0.219684
 100.151   0.1535644531  0.82764     2558.50000 0.8692       1.307591       0.130758
 103.582   0.1535644531  0.83008     2559.00000 0.8715       1.285259       0.128523
 105.917   0.1535644531  0.83099     2559.50000 0.8775       1.225148       0.122510
 105.376   0.1535644531  0.81755     2561.00000 0.8977       1.023246       0.102318
 103.344   0.1535644531  0.82675     2561.50000 0.8961       1.039148       0.103911
  61.120   0.1535644531  0.94062     3079.50000 0.8009       1.990772       0.199053
  57.078   0.1535644531  0.82642     3978.50000 0.7856       2.143660       0.214355
  79.048   0.1582031250  0.77897       63.00000 0.8243       1.756751       0.175675
  78.407   0.1582031250  0.75141       63.50000 0.8265       1.734611       0.173459
 101.096   0.1582031250  0.81574     2558.50000 0.8711       1.288992       0.128895
 104.654   0.1582031250  0.81651     2559.00000 0.8729       1.271203       0.127115
 106.776   0.1582031250  0.85430     2561.00000 0.8985       1.015045       0.101497
 104.661   0.1582031250  0.84923     2561.50000 0.8970       1.030297       0.103026
 102.870   0.1582031250  0.85333     2562.00000 0.8881       1.119059       0.111906
  79.684   0.1628417969  0.80293       63.00000 0.8232       1.767753       0.176774
  78.992   0.1628417969  0.77872       63.50000 0.8268       1.731664       0.173163
  78.237   0.1628417969  0.75320       64.00000 0.8245       1.754912       0.175485
  25.350   0.1628417969  0.76136     1171.00000 0.8883       1.117348       0.111720
 102.031   0.1628417969  0.79691     2558.50000 0.8726       1.274526       0.127446
 105.752   0.1628417969  0.79934     2559.00000 0.8739       1.260785       0.126070
 106.061   0.1628417969  0.85743     2561.50000 0.8982       1.017980       0.101794
 104.045   0.1628417969  0.84914     2562.00000 0.8894       1.105552       0.110555
  80.196   0.1674804688  0.79421       63.00000 0.8231       1.769496       0.176947
  79.453   0.1674804688  0.77233       63.50000 0.8282       1.717757       0.171771
  78.654   0.1674804688  0.75040       64.00000 0.8269       1.731515       0.173144
  24.839   0.1674804688  0.75965     1171.00000 0.8878       1.122524       0.112240
 102.946   0.1674804688  0.77650     2558.50000 0.8736       1.264443       0.126433
 107.546   0.1674804688  0.83874     2561.50000 0.8997       1.003106       0.100307
 105.261   0.1674804688  0.83231     2562.00000 0.8912       1.088094       0.108809
  80.602   0.1721191406  0.78966       63.00000 0.8238       1.762058       0.176202
  79.808   0.1721191406  0.77154       63.50000 0.8307       1.693278       0.169322
  78.966   0.1721191406  0.75330       64.00000 0.8303       1.696924       0.169684
  24.292   0.1721191406  0.77711     1171.00000 0.8876       1.124274       0.112417
 109.119   0.1721191406  0.79747     2561.50000 0.9014       0.986487       0.098646
 106.515   0.1721191406  0.78762     2562.00000 0.8933       1.067368       0.106737
 104.872   0.1721191406  0.79287     2562.50000 0.8774       1.226022       0.122599
  81.646   0.1767578125  0.77981       62.50000 0.8092       1.908029       0.190799
  80.917   0.1767578125  0.76600       63.00000 0.8255       1.745476       0.174542
  80.077   0.1767578125  0.75177       63.50000 0.8341       1.658821       0.165875
  23.721   0.1767578125  0.77624     1171.00000 0.8877       1.123045       0.112296
  28.325   0.1767578125  0.76265     1171.50000 0.8921       1.079123       0.107904
  20.236   0.1813964844  0.76746     1170.50000 0.8815       1.185075       0.118493
  23.135   0.1813964844  0.76307     1171.00000 0.8881       1.119242       0.111918
  27.652   0.1813964844  0.75122     1171.50000 0.8924       1.076219       0.107615
  51.446   0.1860351562  0.75748     1166.00000 0.8330       1.670186       0.167016
 101.990   0.1860351562  0.76294     2567.00000 0.7342       2.658089       0.265809
  36.333   0.1953125000  0.77161     3755.50000 0.8174       1.825826       0.182572
  39.383   0.1999511719  0.81308     3755.00000 0.8523       1.477368       0.147736
  36.862   0.1999511719  0.75145     3755.50000 0.8189       1.811502       0.181139
  47.563   0.2045898438  0.86676     3753.00000 0.9166       0.833584       0.083358
  48.704   0.2045898438  0.86492     3753.50000 0.9156       0.844212       0.084421
  46.914   0.2045898438  0.86442     3754.00000 0.9051       0.948872       0.094887
  43.422   0.2045898438  0.86094     3754.50000 0.8845       1.154694       0.115469
  39.971   0.2045898438  0.83981     3755.00000 0.8551       1.448755       0.144874
  37.355   0.2045898438  0.78569     3755.50000 0.8202       1.797633       0.179752
  49.301   0.2092285156  0.84702     3753.00000 0.9214       0.785839       0.078584
  50.372   0.2092285156  0.84494     3753.50000 0.9202       0.797962       0.079796
  48.173   0.2092285156  0.84435     3754.00000 0.9095       0.905324       0.090532
  44.223   0.2092285156  0.84060     3754.50000 0.8883       1.116745       0.111674
  40.497   0.2092285156  0.81772     3755.00000 0.8580       1.420498       0.142049
  51.114   0.2138671875  0.82393     3753.00000 0.9259       0.740771       0.074077
  52.088   0.2138671875  0.81915     3753.50000 0.9246       0.753810       0.075381
  49.421   0.2138671875  0.81775     3754.00000 0.9137       0.863180       0.086318
  44.966   0.2138671875  0.81829     3754.50000 0.8920       1.079579       0.107958
  40.953   0.2138671875  0.81512     3755.00000 0.8608       1.392459       0.139245
  55.296   0.2185058594  0.77561     1909.50000 0.7271       2.728784       0.272859
  59.832   0.2185058594  0.77450     1910.00000 0.7940       2.060233       0.206008
  49.115   0.2185058594  0.81061     3752.50000 0.9241       0.758524       0.075852
  52.997   0.2185058594  0.80171     3753.00000 0.9302       0.698426       0.069843
  53.852   0.2185058594  0.79655     3753.50000 0.9288       0.711774       0.071177
  50.656   0.2185058594  0.79507     3754.00000 0.9178       0.822440       0.082244
  45.647   0.2185058594  0.79570     3754.50000 0.8957       1.043179       0.104318
  41.336   0.2185058594  0.79226     3755.00000 0.8635       1.364541       0.136453
  50.826   0.2231445312  0.79182     3752.50000 0.9281       0.718890       0.071889
  54.943   0.2231445312  0.77902     3753.00000 0.9341       0.658796       0.065880
  55.666   0.2231445312  0.77046     3753.50000 0.9328       0.671844       0.067184
  51.878   0.2231445312  0.76619     3754.00000 0.9217       0.783098       0.078310
  46.266   0.2231445312  0.76553     3754.50000 0.8992       1.007541       0.100754
  41.643   0.2231445312  0.76662     3755.00000 0.8663       1.336691       0.133668
  52.570   0.2277832031  0.76813     3752.50000 0.9318       0.682379       0.068238
  56.945   0.2277832031  0.75468     3753.00000 0.9378       0.621834       0.062183
-141.921   0.2509765625  0.77386      179.00000 0.4738       5.261829       0.526164
-141.898   0.2556152344  0.77111      179.00000 0.5038       4.961853       0.496172
-141.861   0.2602539062  0.76765      179.00000 0.5291       4.708938       0.470885
-141.809   0.2648925781  0.81962      179.00000 0.5507       4.493288       0.449324
-141.742   0.2695312500  0.83249      179.00000 0.5692       4.307631       0.430761
-141.661   0.2741699219  0.84547      179.00000 0.5854       4.146456       0.414645
-141.567   0.2788085938  0.85161      179.00000 0.5994       4.005539       0.400554
-141.459   0.2834472656  0.84494      179.00000 0.6118       3.881590       0.388159
-141.340   0.2880859375  0.83636      179.00000 0.6228       3.772009       0.377201
-141.210   0.2927246094  0.82389      179.00000 0.6325       3.674712       0.367471
  47.054   0.2927246094  0.75925     3337.50000 0.9234       0.765866       0.076583
-141.071   0.2973632812  0.80925      179.00000 0.6412       3.588015       0.358800
  47.018   0.2973632812  0.77430     3337.50000 0.9198       0.801862       0.080182
  45.823   0.2973632812  0.77108     3338.00000 0.9634       0.365978       0.036596
-140.923   0.3020019531  0.86779      179.00000 0.6489       3.510538       0.351051
  48.122   0.3020019531  0.75287     3336.50000 0.8961       1.038971       0.103893
  47.525   0.3020019531  0.78309     3337.00000 0.8932       1.068545       0.106849
  46.977   0.3020019531  0.78662     3337.50000 0.9162       0.838362       0.083832
  45.853   0.3020019531  0.78658     3338.00000 0.9612       0.387873       0.038786
-140.769   0.3066406250  0.85793      179.00000 0.6559       3.441136       0.344110
  48.156   0.3066406250  0.77711     3336.50000 0.8932       1.068119       0.106807
  47.494   0.3066406250  0.80722     3337.00000 0.8893       1.107063       0.110701
  45.889   0.3066406250  0.81013     3338.00000 0.9590       0.409825       0.040981
-140.609   0.3112792969  0.84713      179.00000 0.6621       3.378845       0.337880
  48.186   0.3112792969  0.79551     3336.50000 0.8903       1.097416       0.109737
  47.456   0.3112792969  0.82596     3337.00000 0.8854       1.145878       0.114582
  45.927   0.3112792969  0.82862     3338.00000 0.9568       0.431769       0.043175
-140.445   0.3159179688  0.83584      179.00000 0.6677       3.322863       0.332281
  48.210   0.3159179688  0.80523     3336.50000 0.8873       1.126822       0.112677
  45.965   0.3159179688  0.83862     3338.00000 0.9546       0.453645       0.045362
-140.278   0.3205566406  0.82443      179.00000 0.6728       3.272494       0.327243
  48.230   0.3205566406  0.80803     3336.50000 0.8844       1.156306       0.115625
  46.001   0.3205566406  0.84152     3338.00000 0.9525       0.475397       0.047538
  48.244   0.3251953125  0.83377     3336.50000 0.8814       1.185842       0.118578
  46.032   0.3251953125  0.83062     3338.00000 0.9503       0.496975       0.049695
  48.255   0.3298339844  0.82883     3336.50000 0.8785       1.215409       0.121535
  46.059   0.3298339844  0.82597     3338.00000 0.9482       0.518331       0.051831
  48.261   0.3344726562  0.82238     3336.50000 0.8755       1.244991       0.124492
  46.081   0.3344726562  0.81965     3338.00000 0.9461       0.539425       0.053940
  48.263   0.3391113281  0.81507     3336.50000 0.8725       1.274578       0.127451
  46.097   0.3391113281  0.81238     3338.00000 0.9440       0.560219       0.056020
  48.262   0.3437500000  0.80724     3336.50000 0.8696       1.304165       0.130409
  48.257   0.3483886719  0.78623     3336.50000 0.8666       1.333748       0.133366
  48.250   0.3530273438  0.77700     3336.50000 0.8637       1.363329       0.136324
  48.240   0.3576660156  0.76764     3336.50000 0.8607       1.392911       0.139281
-138.101   0.3808593750  0.91634     3338.50000 0.9716       0.284411       0.028440
-138.626   0.3854980469  0.91242     3338.50000 0.9703       0.297435       0.029742
-139.108   0.3901367188  0.90854     3338.50000 0.9689       0.311005       0.031099
-139.549   0.3947753906  0.90471     3338.50000 0.9675       0.325089       0.032507
-139.949   0.3994140625  0.90096     3338.50000 0.9660       0.339656       0.033964
-140.312   0.4040527344  0.89729     3338.50000 0.9645       0.354675       0.035466
-136.783   0.4040527344  0.75484     3365.50000 0.8903       1.097405       0.109736
-140.638   0.4086914062  0.89371     3338.50000 0.9630       0.370115       0.037010
-136.739   0.4086914062  0.76240     3365.50000 0.8872       1.127716       0.112766
-140.930   0.4133300781  0.89025     3338.50000 0.9614       0.385947       0.038594
-136.693   0.4133300781  0.77013     3365.50000 0.8842       1.158246       0.115819
-141.189   0.4179687500  0.88847     3338.50000 0.9598       0.402141       0.040213
-136.645   0.4179687500  0.86904     3365.50000 0.8811       1.189014       0.118895
-141.419   0.4226074219  0.88490     3338.50000 0.9581       0.418669       0.041866
-141.620   0.4272460938  0.88147     3338.50000 0.9565       0.435506       0.043550
-141.795   0.4318847656  0.87818     3338.50000 0.9547       0.452624       0.045262
 -11.927   0.4643554688  0.78389     1026.50000 0.9075       0.924598       0.092459
 -12.169   0.4689941406  0.78064     1026.50000 0.9085       0.914609       0.091460
 -12.414   0.4736328125  0.77764     1026.50000 0.9095       0.904615       0.090460
  63.376   0.4782714844  0.75011       24.00000 0.7614       2.386183       0.238617
 -12.662   0.4782714844  0.77496     1026.50000 0.9105       0.894618       0.089460
  63.390   0.4829101562  0.75289       24.00000 0.7577       2.422815       0.242281
 -12.914   0.4829101562  0.77262     1026.50000 0.9115       0.884615       0.088460
  63.405   0.4875488281  0.75547       24.00000 0.7540       2.460046       0.246004
 -13.170   0.4875488281  0.77061     1026.50000 0.9125       0.874608       0.087459
  63.420   0.4921875000  0.75785       24.00000 0.7502       2.497882       0.249788
 -13.430   0.4921875000  0.76892     1026.50000 0.9135       0.864594       0.086457
 -30.625   0.4921875000  0.75270     1231.00000 0.8858       1.142459       0.114243
  63.435   0.4968261719  0.76004       24.00000 0.7464       2.536318       0.253631
 -13.695   0.4968261719  0.76751     1026.50000 0.9145       0.854573       0.085455
 -30.299   0.4968261719  0.75650     1231.00000 0.8826       1.173997       0.117397
  63.451   0.5014648438  0.76204       24.00000 0.7425       2.575370       0.257537
 -13.966   0.5014648438  0.76635     1026.50000 0.9155       0.844544       0.084452
 -29.986   0.5014648438  0.75994     1231.00000 0.8794       1.205945       0.120592
2009  20  4 31 27 350
  47.673   0.1210937500  0.79149      905.50000 0.8152       1.848416       0.184828
  51.110   0.1210937500  0.77937      906.00000 0.8214       1.786221       0.178607
  41.820   0.1210937500  0.76799     1358.00000 0.9021       0.978878       0.097883
  39.197   0.1210937500  0.77589     1358.50000 0.8796       1.203843       0.120377
  37.630   0.1210937500  0.78246     1359.00000 0.8561       1.439165       0.143909
  67.088   0.1257324219  0.75816      349.00000 0.7314       2.686021       0.268592
  41.186   0.1257324219  0.80668     1358.00000 0.9046       0.954026       0.095400
  39.442   0.1257324219  0.81371     1358.50000 0.8850       1.150315       0.115027
  38.283   0.1257324219  0.81884     1359.00000 0.8634       1.366385       0.136634
  37.415   0.1257324219  0.82054     1359.50000 0.8449       1.551442       0.155141
  75.841   0.1257324219  0.75095     2159.00000 0.9289       0.711365       0.071131
  73.994   0.1257324219  0.75074     2159.50000 0.9336       0.664161       0.066409
  71.880   0.1257324219  0.75121     2160.00000 0.9408       0.592133       0.059206
  67.154   0.1257324219  0.75499     2161.00000 0.9565       0.435323       0.043526
  65.262   0.1257324219  0.75898     2161.50000 0.9621       0.379124       0.037908
  66.412   0.1303710938  0.76682      349.00000 0.7461       2.539162       0.253912
  41.214   0.1303710938  0.78909     1358.00000 0.9072       0.927741       0.092771
  40.025   0.1303710938  0.79366     1358.50000 0.8892       1.108246       0.110821
  39.126   0.1303710938  0.79530     1359.00000 0.8687       1.313330       0.131330
  38.396   0.1303710938  0.79310     1359.50000 0.8505       1.494870       0.149485
  74.448   0.1303710938  0.75016     2159.00000 0.9317       0.682651       0.068260
  72.489   0.1303710938  0.75034     2159.50000 0.9358       0.642475       0.064241
  70.251   0.1303710938  0.75176     2160.00000 0.9421       0.579156       0.057909
  65.409   0.1303710938  0.75952     2161.00000 0.9559       0.441216       0.044116
  63.667   0.1303710938  0.76691     2161.50000 0.9606       0.393568       0.039352
  63.349   0.1303710938  0.77764     2162.00000 0.9627       0.373513       0.037348
  65.933   0.1350097656  0.76143      349.00000 0.7572       2.428077       0.242807
  64.455   0.1350097656  0.76288      349.50000 0.7634       2.366087       0.236604
  63.456   0.1350097656  0.76319     2161.00000 0.9557       0.442658       0.044260
  61.852   0.1350097656  0.77581     2161.50000 0.9597       0.403123       0.040308
  61.872   0.1350097656  0.79325     2162.00000 0.9610       0.390356       0.039032
  55.737   0.1396484375  0.77736      344.00000 0.8279       1.720787       0.172077
  59.721   0.1396484375  0.78796     2161.50000 0.9591       0.408796       0.040874
  60.145   0.1396484375  0.81356     2162.00000 0.9596       0.403599       0.040356
  57.748   0.1442871094  0.76723      344.00000 0.8274       1.726130       0.172609
  57.177   0.1442871094  0.80405     2161.50000 0.9589       0.411275       0.041122
  58.090   0.1442871094  0.83689     2162.00000 0.9586       0.414028       0.041398
  59.707   0.1489257812  0.75133      344.00000 0.8261       1.739340       0.173927
  45.393   0.1489257812  0.76247      897.50000 0.8311       1.688731       0.168851
  55.614   0.1489257812  0.85791     2162.00000 0.9578       0.422251       0.042219
  45.088   0.1535644531  0.77976      897.50000 0.8375       1.624808       0.162460
 104.805   0.1674804688  0.76025      652.50000 0.8068       1.932491       0.193246
  43.654   0.1674804688  0.80382      897.00000 0.8602       1.398054       0.139787
 105.753   0.1721191406  0.78949      652.50000 0.8046       1.953876       0.195387
  43.452   0.1721191406  0.82967      897.00000 0.8653       1.347594       0.134744
  62.343   0.1721191406  0.75225     3807.00000 0.8031       1.969447       0.196940
 106.500   0.1767578125  0.77525      652.50000 0.8039       1.961198       0.196119
 104.533   0.1767578125  0.76999      653.00000 0.8213       1.786951       0.178692
  43.251   0.1767578125  0.86156      897.00000 0.8700       1.300615       0.130048
  43.049   0.1813964844  0.86647      897.00000 0.8743       1.257250       0.125714
  42.847   0.1860351562  0.90012      897.00000 0.8783       1.217545       0.121746
  42.643   0.1906738281  0.89526      897.00000 0.8819       1.181465       0.118140
  42.437   0.1953125000  0.91014      897.00000 0.8851       1.148914       0.114886
  42.230   0.1999511719  0.88198      897.00000 0.8880       1.119751       0.111971
