 -56.466   0.2185058594  0.82124     1753.50000 0.8216       1.783870       0.178376
-115.186   0.2185058594  0.75633     3377.50000 0.9177       0.823234       0.082318
-116.532   0.2185058594  0.75359     3378.00000 0.9107       0.892697       0.089268
-118.103   0.2185058594  0.75400     3378.50000 0.9148       0.852416       0.085241
 -53.255   0.2231445312  0.77487     1750.50000 0.8014       1.986186       0.198612
 -54.049   0.2231445312  0.78687     1751.00000 0.7840       2.160498       0.216050
-113.839   0.2231445312  0.80757     3377.00000 0.9318       0.682144       0.068206
-115.259   0.2231445312  0.78481     3377.50000 0.9129       0.871390       0.087132
-116.827   0.2231445312  0.76295     3378.00000 0.9066       0.934070       0.093404
-118.462   0.2231445312  0.75838     3378.50000 0.9120       0.880041       0.088004
 -53.717   0.2277832031  0.81395     1750.50000 0.8017       1.983198       0.198312
 -54.494   0.2277832031  0.82266     1751.00000 0.7825       2.175228       0.217523
-113.503   0.2277832031  0.81626     3377.00000 0.9270       0.730267       0.073016
-115.362   0.2277832031  0.79052     3377.50000 0.9077       0.922930       0.092285
-117.179   0.2277832031  0.76849     3378.00000 0.9022       0.977937       0.097791
-118.890   0.2277832031  0.76573     3378.50000 0.9092       0.907999       0.090800
 -54.177   0.2324218750  0.82512     1750.50000 0.8021       1.979114       0.197903
-115.484   0.2324218750  0.78563     3377.50000 0.9022       0.978306       0.097820
-117.580   0.2324218750  0.76422     3378.00000 0.8975       1.024640       0.102460
-119.383   0.2324218750  0.76369     3378.50000 0.9064       0.936290       0.093629
 -54.633   0.2370605469  0.83873     1750.50000 0.8026       1.973934       0.197383
-115.611   0.2370605469  0.76612     3377.50000 0.8962       1.037994       0.103785
-104.777   0.2834472656  0.77476      640.50000 0.8713       1.287477       0.128748
 -85.769   0.2834472656  0.76115     2551.00000 0.7054       2.946007       0.294585
-104.264   0.2880859375  0.76627      640.50000 0.8707       1.293264       0.129326
 -85.907   0.2880859375  0.75403     2551.00000 0.7082       2.918645       0.291849
-103.756   0.2927246094  0.75667      640.50000 0.8702       1.298249       0.129825
 -86.352   0.3020019531  0.79262     2551.00000 0.7155       2.845348       0.284521
 -86.506   0.3066406250  0.77717     2551.00000 0.7176       2.823930       0.282380
  71.522   0.4689941406  0.76815     2929.00000 0.7237       2.763240       0.276323
  71.295   0.4736328125  0.79333     2929.00000 0.7160       2.839559       0.283955
  71.080   0.4782714844  0.80930     2929.00000 0.7083       2.916871       0.291687
  70.876   0.4829101562  0.82017     2929.00000 0.7005       2.995158       0.299516
  70.683   0.4875488281  0.82815     2929.00000 0.6926       3.074411       0.307441
  35.980   0.5014648438  0.75271     2386.50000 0.4618       5.382618       0.538239
2009  13 12 26 16 350
 -66.145   0.1257324219  0.80738     1048.00000 0.8037       1.963537       0.196325
 -82.273   0.1303710938  0.79848     1041.00000 0.8302       1.697624       0.169762
 -65.809   0.1303710938  0.82585     1048.00000 0.7989       2.010934       0.201087
 -57.472   0.1303710938  0.78269     1054.00000 0.7390       2.609745       0.260974
 -81.141   0.1350097656  0.85786     1041.00000 0.8236       1.763638       0.176363
 -69.116   0.1350097656  0.83925     1047.50000 0.7891       2.109219       0.210913
 -65.709   0.1350097656  0.83286     1048.00000 0.7959       2.040873       0.204087
 -55.863   0.1350097656  0.80520     1054.00000 0.7295       2.705385       0.270536
 -74.315   0.1350097656  0.75587     1061.00000 0.8356       1.644269       0.164426
 -69.185   0.1396484375  0.84150     1038.50000 0.7690       2.310307       0.231009
 -80.601   0.1396484375  0.87688     1041.00000 0.8178       1.822254       0.182225
 -65.783   0.1396484375  0.83191     1048.00000 0.7944       2.056442       0.205639
 -54.260   0.1396484375  0.81318     1054.00000 0.7175       2.825103       0.282504
 -74.550   0.1396484375  0.78398     1061.00000 0.8339       1.661361       0.166135
 -69.870   0.1442871094  0.86330     1038.50000 0.7713       2.286809       0.228670
 -80.436   0.1442871094  0.88298     1041.00000 0.8123       1.877197       0.187719
 -65.982   0.1442871094  0.82336     1048.00000 0.7940       2.060162       0.205998
 -68.420   0.1489257812  0.84903     1038.00000 0.7821       2.179326       0.217933
 -70.456   0.1489257812  0.87451     1038.50000 0.7726       2.273639       0.227359
 -80.520   0.1489257812  0.88167     1041.00000 0.8069       1.931271       0.193127
 -79.634   0.1489257812  0.86897     1041.50000 0.8092       1.908516       0.190840
 -68.984   0.1535644531  0.87189     1038.00000 0.7833       2.167210       0.216720
 -70.936   0.1535644531  0.90701     1038.50000 0.7732       2.268048       0.226803
 -80.776   0.1535644531  0.87642     1041.00000 0.8013       1.986637       0.198663
 -80.012   0.1535644531  0.86670     1041.50000 0.8033       1.967371       0.196727
 -68.008   0.1582031250  0.88255     1037.50000 0.8022       1.978536       0.197841
 -69.393   0.1582031250  0.90958     1038.00000 0.7841       2.158765       0.215874
 -81.154   0.1582031250  0.87137     1041.00000 0.7955       2.045025       0.204502
 -80.517   0.1582031250  0.86446     1041.50000 0.7973       2.026661       0.202657
 -83.701   0.1628417969  0.81647      208.50000 0.8356       1.643634       0.164363
 -81.752   0.1628417969  0.81633      209.00000 0.8590       1.409586       0.140955
 -68.285   0.1628417969  0.90801     1037.50000 0.8035       1.965593       0.196543
 -69.651   0.1628417969  0.90916     1038.00000 0.7848       2.152030       0.215198
 -81.625   0.1628417969  0.87064     1041.00000 0.7892       2.107883       0.210788
 -81.122   0.1628417969  0.86659     1041.50000 0.7913       2.087361       0.208726
 -84.786   0.1674804688  0.78848      208.50000 0.8398       1.602156       0.160216
 -83.067   0.1674804688  0.78413      209.00000 0.8621       1.379047       0.137899
 -68.395   0.1674804688  0.88288     1037.50000 0.8050       1.950681       0.195049
 -81.812   0.1674804688  0.85301     1041.50000 0.7850       2.149901       0.214980
 -82.578   0.1721191406  0.86820     1041.50000 0.7786       2.214184       0.221406
 -83.416   0.1767578125  0.88823     1041.50000 0.7721       2.279523       0.227938
 -85.744   0.1906738281  0.88848     1041.00000 0.7368       2.632301       0.263219
 -86.634   0.1953125000  0.89954     1041.00000 0.7255       2.744689       0.274451
 -87.594   0.1999511719  0.89262     1041.00000 0.7141       2.858969       0.285871
-102.647   0.2092285156  0.75485     2302.00000 0.9847       0.152954       0.015295
-120.673   0.2138671875  0.76176     2301.50000 0.9802       0.198030       0.019802
-102.427   0.2138671875  0.76980     2302.00000 0.9853       0.147089       0.014708
 -93.418   0.2138671875  0.76224     2302.50000 0.9844       0.155564       0.015555
-102.111   0.2185058594  0.76356     2302.00000 0.9859       0.141032       0.014103
 -93.088   0.2185058594  0.75433     2302.50000 0.9850       0.150219       0.015020
 -82.153   0.2231445312  0.75507      116.00000 0.8824       1.176291       0.117616
-101.697   0.2231445312  0.75143     2302.00000 0.9865       0.134898       0.013489
 -81.433   0.2277832031  0.75276      116.00000 0.8843       1.157119       0.115698
  -4.862   0.2277832031  0.82051     1978.50000 0.7799       2.200948       0.220095
  -6.003   0.2277832031  0.85693     1979.00000 0.7733       2.267623       0.226736
 -95.673   0.2324218750  0.78664      472.50000 0.6566      29.118816       2.911786
  -5.077   0.2324218750  0.81170     1978.50000 0.7825       2.174974       0.217497
  -6.194   0.2324218750  0.84854     1979.00000 0.7757       2.242975       0.224272
 -80.089   0.2370605469  0.79173      116.00000 0.8877       1.122950       0.112279
  -5.278   0.2370605469  0.84242     1978.50000 0.7852       2.147567       0.214757
  -6.362   0.2370605469  0.87975     1979.00000 0.7785       2.215402       0.221514
  -5.462   0.2416992188  0.83318     1978.50000 0.7881       2.119239       0.211924
  -6.508   0.2416992188  0.87078     1979.00000 0.7815       2.185582       0.218532
  -5.631   0.2463378906  0.82345     1978.50000 0.7910       2.090438       0.209044
  -6.631   0.2463378906  0.86118     1979.00000 0.7846       2.154174       0.215391
 -84.505   0.2509765625  0.76456      115.50000 0.8977       1.023101       0.102308
  -5.782   0.2509765625  0.84681     1978.50000 0.7938       2.061547       0.206155
 -84.139   0.2556152344  0.75264      115.50000 0.8990       1.009780       0.100975
  -5.915   0.2556152344  0.83484     1978.50000 0.7967       2.032880       0.203288
  -6.029   0.2602539062  0.82159     1978.50000 0.7995       2.004689       0.200469
 -83.540   0.2648925781  0.77154      115.50000 0.9015       0.984967       0.098493
  -6.124   0.2648925781  0.82222     1978.50000 0.8023       1.977174       0.197717
-108.836   0.2648925781  0.77749     3261.50000 0.8780       1.219906       0.121988
-107.728   0.2648925781  0.83195     3262.00000 0.8388       1.612219       0.161220
 -83.308   0.2695312500  0.75295      115.50000 0.9027       0.973389       0.097334
  -6.198   0.2695312500  0.80364     1978.50000 0.8050       1.950480       0.195047
-108.484   0.2695312500  0.78366     3261.50000 0.8795       1.204692       0.120467
-107.428   0.2695312500  0.85559     3262.00000 0.8390       1.609831       0.160982
  -6.253   0.2741699219  0.78241     1978.50000 0.8075       1.924717       0.192471
-108.144   0.2741699219  0.77974     3261.50000 0.8810       1.190254       0.119022
-107.146   0.2741699219  0.86417     3262.00000 0.8392       1.608332       0.160832
  -6.286   0.2788085938  0.75775     1978.50000 0.8100       1.899962       0.189995
-107.814   0.2788085938  0.76452     3261.50000 0.8823       1.176564       0.117653
-106.879   0.2788085938  0.85266     3262.00000 0.8392       1.607690       0.160768
-107.495   0.2834472656  0.84936     3261.50000 0.8836       1.163600       0.116356
-107.187   0.2880859375  0.81623     3261.50000 0.8849       1.151343       0.115129
-106.889   0.2927246094  0.78062     3261.50000 0.8860       1.139770       0.113972
-106.323   0.3020019531  0.79152     3261.50000 0.8881       1.118617       0.111855
-106.057   0.3066406250  0.76351     3261.50000 0.8891       1.109003       0.110893
  72.086   0.4179687500  0.79822      892.50000 0.8835       1.164622       0.116461
 -81.238   0.4179687500  0.78567     3944.50000 0.8985       1.014969       0.101494
 -80.969   0.4226074219  0.78456     3944.50000 0.8996       1.003693       0.100366
 -80.685   0.4272460938  0.78346     3944.50000 0.9008       0.992090       0.099206
 -80.384   0.4318847656  0.78236     3944.50000 0.9020       0.980151       0.098012
 -80.065   0.4365234375  0.78126     3944.50000 0.9032       0.967872       0.096785
 -79.726   0.4411621094  0.78014     3944.50000 0.9045       0.955247       0.095522
 -79.366   0.4458007812  0.77899     3944.50000 0.9058       0.942275       0.094225
 -78.981   0.4504394531  0.77781     3944.50000 0.9071       0.928953       0.092893
 -78.572   0.4550781250  0.77659     3944.50000 0.9085       0.915283       0.091526
 -78.134   0.4597167969  0.77531     3944.50000 0.9099       0.901266       0.090125
  96.548   0.4643554688  0.78699     1231.50000 0.8437       1.562637       0.156264
 -77.667   0.4643554688  0.76936     3944.50000 0.9113       0.886908       0.088689
  96.690   0.4689941406  0.80963     1231.50000 0.8383       1.616948       0.161695
 -77.167   0.4689941406  0.76742     3944.50000 0.9128       0.872213       0.087220
  96.829   0.4736328125  0.82623     1231.50000 0.8328       1.671796       0.167180
 -76.633   0.4736328125  0.76536     3944.50000 0.9143       0.857189       0.085718
  96.965   0.4782714844  0.83825     1231.50000 0.8273       1.727170       0.172717
 -76.060   0.4782714844  0.76318     3944.50000 0.9158       0.841845       0.084183
  97.098   0.4829101562  0.84706     1231.50000 0.8217       1.783061       0.178306
 -75.447   0.4829101562  0.76086     3944.50000 0.9174       0.826192       0.082618
  97.229   0.4875488281  0.85366     1231.50000 0.8161       1.839458       0.183946
 -74.789   0.4875488281  0.75838     3944.50000 0.9190       0.810244       0.081024
  97.356   0.4921875000  0.85874     1231.50000 0.8104       1.896350       0.189635
 -93.120   0.4921875000  0.80816     3942.50000 0.7315       2.684857       0.268484
 -74.082   0.4921875000  0.75571     3944.50000 0.9206       0.794018       0.079401
  97.482   0.4968261719  0.86276     1231.50000 0.8046       1.953730       0.195373
 -93.191   0.4968261719  0.80419     3942.50000 0.7295       2.705454       0.270544
 -73.324   0.4968261719  0.75285     3944.50000 0.9222       0.777530       0.077752
  97.605   0.5014648438  0.86603     1231.50000 0.7988       2.011583       0.201158
 -93.265   0.5014648438  0.79995     3942.50000 0.7274       2.726327       0.272631
2009  13 13 34 11 350
  31.128   0.1535644531  0.76551     2896.50000 0.8578       1.422156       0.142208
  33.681   0.1582031250  0.78695     2897.00000 0.8639       1.360965       0.136094
  33.285   0.1628417969  0.81790     2897.00000 0.8646       1.354526       0.135449
  81.030   0.1721191406  0.76408     2477.00000 0.5145       4.854635       0.485463
 -36.592   0.1767578125  0.77080     1332.50000 0.8531       1.469514       0.146944
  79.130   0.1767578125  0.78794     2476.50000 0.5721       4.278958       0.427881
 -69.359   0.1767578125  0.76018     3090.50000 0.5920       4.080327       0.408033
 -36.657   0.1813964844  0.78447     1332.50000 0.8566       1.434407       0.143433
 -36.712   0.1860351562  0.81226     1332.50000 0.8597       1.403529       0.140345
 -36.762   0.1906738281  0.81835     1332.50000 0.8624       1.376111       0.137604
 -36.808   0.1953125000  0.82125     1332.50000 0.8649       1.351505       0.135143
 -74.273   0.1953125000  0.80134     2465.00000 0.7865       2.135554       0.213529
 -36.853   0.1999511719  0.82156     1332.50000 0.8671       1.329164       0.132910
 -74.244   0.1999511719  0.76766     2465.00000 0.7967       2.032827       0.203262
 -36.898   0.2045898438  0.81156     1332.50000 0.8691       1.308635       0.130857
  88.479   0.2045898438  0.84789     3506.00000 0.7827       2.173245       0.217325
 -36.942   0.2092285156  0.80698     1332.50000 0.8711       1.289540       0.128948
  89.065   0.2092285156  0.84975     3506.00000 0.8069       1.930930       0.193092
-101.247   0.2138671875  0.88899      893.00000 0.8020       1.980295       0.198008
 -36.986   0.2138671875  0.80038     1332.50000 0.8728       1.271570       0.127151
-134.669   0.2138671875  0.77498     2328.00000 0.7219       2.780647       0.278059
  89.696   0.2138671875  0.78538     3506.00000 0.8281       1.718786       0.171876
-101.523   0.2185058594  0.88279      893.00000 0.8028       1.971865       0.197168
 -37.031   0.2185058594  0.79292     1332.50000 0.8746       1.254477       0.125442
-133.379   0.2185058594  0.83203     2328.50000 0.6856       3.143936       0.314386
-101.831   0.2231445312  0.87722      893.00000 0.8038       1.962397       0.196224
 -37.076   0.2231445312  0.79627     1332.50000 0.8762       1.238063       0.123800
-133.730   0.2231445312  0.87579     2328.50000 0.6744       3.256054       0.325598
-102.169   0.2277832031  0.86939      893.00000 0.8048       1.951842       0.195171
-104.092   0.2277832031  0.88076      893.50000 0.8098       1.901555       0.190154
 -37.121   0.2277832031  0.78752     1332.50000 0.8778       1.222173       0.122211
-102.533   0.2324218750  0.86080      893.00000 0.8060       1.940215       0.194010
-104.633   0.2324218750  0.87260      893.50000 0.8115       1.884928       0.188492
 -37.168   0.2324218750  0.77817     1332.50000 0.8793       1.206695       0.120663
-105.201   0.2370605469  0.87420      893.50000 0.8132       1.868098       0.186810
 -37.215   0.2370605469  0.78632     1332.50000 0.8809       1.191553       0.119149
-118.720   0.2416992188  0.75745      301.00000 0.7663       2.336629       0.233655
-105.790   0.2416992188  0.86499      893.50000 0.8149       1.851204       0.185120
 -37.264   0.2416992188  0.77606     1332.50000 0.8823       1.176700       0.117663
-106.397   0.2463378906  0.85501      893.50000 0.8166       1.834381       0.183438
 -37.314   0.2463378906  0.76523     1332.50000 0.8838       1.162112       0.116204
-132.656   0.2463378906  0.87609     2329.00000 0.5277       4.723851       0.472328
-107.019   0.2509765625  0.86291      893.50000 0.8182       1.817753       0.181775
 -37.364   0.2509765625  0.76292     1332.50000 0.8852       1.147794       0.114772
-107.651   0.2556152344  0.85168      893.50000 0.8199       1.801437       0.180143
 -37.416   0.2556152344  0.75003     1332.50000 0.8866       1.133760       0.113368
  94.474   0.2556152344  0.75413     1762.00000 0.9227       0.773211       0.077321
-108.292   0.2602539062  0.83949      893.50000 0.8214       1.785528       0.178552
  94.505   0.2602539062  0.75351     1762.00000 0.9249       0.751073       0.075107
-108.937   0.2648925781  0.84579      893.50000 0.8230       1.770110       0.177009
  94.620   0.2741699219  0.77663     1762.00000 0.9308       0.691563       0.069156
  91.758   0.2741699219  0.76210     1762.50000 0.9368       0.631664       0.063166
  94.667   0.2788085938  0.78932     1762.00000 0.9326       0.673930       0.067393
  91.622   0.2788085938  0.77544     1762.50000 0.9386       0.613647       0.061365
  94.718   0.2834472656  0.82341     1762.00000 0.9343       0.657345       0.065734
  91.479   0.2834472656  0.80177     1762.50000 0.9403       0.596582       0.059658
  94.773   0.2880859375  0.81493     1762.00000 0.9358       0.641775       0.064177
  91.329   0.2880859375  0.79484     1762.50000 0.9420       0.580435       0.058043
  94.832   0.2927246094  0.78918     1762.00000 0.9373       0.627186       0.062719
  91.174   0.2927246094  0.77058     1762.50000 0.9435       0.565171       0.056517
  94.894   0.2973632812  0.75249     1762.00000 0.9386       0.613543       0.061354
  94.961   0.3020019531  0.77375     1762.00000 0.9399       0.600812       0.060081
  90.844   0.3020019531  0.75272     1762.50000 0.9463       0.537154       0.053715
  95.030   0.3066406250  0.77791     1762.00000 0.9411       0.588960       0.058896
  90.671   0.3066406250  0.75538     1762.50000 0.9476       0.524335       0.052433
  95.103   0.3112792969  0.78845     1762.00000 0.9422       0.577954       0.057795
  95.178   0.3159179688  0.79702     1762.00000 0.9432       0.567762       0.056776
  95.256   0.3205566406  0.80168     1762.00000 0.9442       0.558353       0.055835
  95.337   0.3251953125  0.84376     1762.00000 0.9450       0.549697       0.054970
  95.419   0.3298339844  0.84315     1762.00000 0.9458       0.541764       0.054176
  95.503   0.3344726562  0.83985     1762.00000 0.9465       0.534524       0.053452
  95.589   0.3391113281  0.83400     1762.00000 0.9472       0.527953       0.052795
  95.677   0.3437500000  0.82559     1762.00000 0.9478       0.522022       0.052202
  95.765   0.3483886719  0.84000     1762.00000 0.9483       0.516707       0.051671
  95.855   0.3530273438  0.82491     1762.00000 0.9488       0.511983       0.051198
  95.946   0.3576660156  0.80682     1762.00000 0.9492       0.507826       0.050783
  96.037   0.3623046875  0.78623     1762.00000 0.9496       0.504212       0.050421
  96.130   0.3669433594  0.76435     1762.00000 0.9499       0.501122       0.050112
  85.087   0.3808593750  0.75146     1715.50000 0.8887       1.112846       0.111281
  85.284   0.3854980469  0.76822     1715.50000 0.8881       1.118993       0.111895
  77.821   0.3854980469  0.75155     1716.00000 0.8913       1.087178       0.108712
  85.485   0.3901367188  0.78157     1715.50000 0.8875       1.125235       0.112519
  78.253   0.3901367188  0.76430     1716.00000 0.8920       1.080290       0.108024
  85.691   0.3947753906  0.78889     1715.50000 0.8868       1.131558       0.113150
  78.689   0.3947753906  0.77130     1716.00000 0.8927       1.073516       0.107347
  85.899   0.3994140625  0.78727     1715.50000 0.8862       1.137948       0.113789
  79.130   0.3994140625  0.76982     1716.00000 0.8933       1.066829       0.106678
  86.110   0.4040527344  0.77492     1715.50000 0.8856       1.144392       0.114432
  79.574   0.4040527344  0.75826     1716.00000 0.8940       1.060200       0.106015
  86.323   0.4086914062  0.75252     1715.50000 0.8849       1.150881       0.115080
 -65.422   0.4086914062  0.76139     2682.00000 0.9676       0.324265       0.032423
  93.539   0.4086914062  0.76151     2682.50000 0.9910       0.090423       0.009042
 -65.432   0.4133300781  0.77397     2682.00000 0.9676       0.323728       0.032370
  95.296   0.4133300781  0.77339     2682.50000 0.9896       0.103843       0.010384
 -67.869   0.4179687500  0.76493     2681.50000 0.9262       0.738279       0.073820
 -65.441   0.4179687500  0.76616     2682.00000 0.9677       0.323220       0.032319
  96.678   0.4179687500  0.78334     2682.50000 0.9882       0.117520       0.011751
 -67.974   0.4226074219  0.77640     2681.50000 0.9250       0.750531       0.075045
  97.796   0.4226074219  0.79259     2682.50000 0.9869       0.131441       0.013143
 -68.075   0.4272460938  0.78704     2681.50000 0.9237       0.763030       0.076294
  98.720   0.4272460938  0.80123     2682.50000 0.9854       0.145599       0.014559
 -68.172   0.4318847656  0.79695     2681.50000 0.9224       0.775773       0.077569
  99.499   0.4318847656  0.80937     2682.50000 0.9840       0.159991       0.015998
 101.868   0.4318847656  0.90210     2687.00000 0.7918       2.081916       0.208184
 -68.266   0.4365234375  0.80620     2681.50000 0.9211       0.788753       0.078866
 100.166   0.4365234375  0.81706     2682.50000 0.9825       0.174617       0.017460
 101.870   0.4365234375  0.89174     2687.00000 0.7917       2.083208       0.208313
 -68.356   0.4411621094  0.81484     2681.50000 0.9198       0.801970       0.080188
 100.745   0.4411621094  0.82435     2682.50000 0.9811       0.189477       0.018946
 101.873   0.4411621094  0.87818     2687.00000 0.7915       2.085153       0.208507
 -68.442   0.4458007812  0.82293     2681.50000 0.9185       0.815417       0.081532
 101.254   0.4458007812  0.83126     2682.50000 0.9795       0.204572       0.020455
 101.877   0.4458007812  0.86123     2687.00000 0.7912       2.087707       0.208761
 -68.524   0.4504394531  0.83049     2681.50000 0.9171       0.829092       0.082900
 101.705   0.4504394531  0.83782     2682.50000 0.9780       0.219905       0.021988
 101.884   0.4504394531  0.84152     2687.00000 0.7909       2.090826       0.209073
 -68.604   0.4550781250  0.83757     2681.50000 0.9157       0.842993       0.084290
 102.109   0.4550781250  0.84406     2682.50000 0.9765       0.235475       0.023545
 101.891   0.4550781250  0.82140     2687.00000 0.7906       2.094472       0.209437
 -68.679   0.4597167969  0.84421     2681.50000 0.9143       0.857117       0.085702
 102.474   0.4597167969  0.84999     2682.50000 0.9749       0.251286       0.025126
 101.900   0.4597167969  0.80509     2687.00000 0.7902       2.098608       0.209849
 -68.751   0.4643554688  0.83612     2681.50000 0.9129       0.871461       0.087136
 102.805   0.4643554688  0.84860     2682.50000 0.9733       0.267339       0.026731
 -68.820   0.4689941406  0.84268     2681.50000 0.9114       0.886023       0.088592
 103.108   0.4689941406  0.85416     2682.50000 0.9716       0.283635       0.028360
 -68.886   0.4736328125  0.84888     2681.50000 0.9099       0.900802       0.090069
 103.386   0.4736328125  0.85945     2682.50000 0.9700       0.300176       0.030014
 -82.669   0.4782714844  0.75096      793.50000 0.9741       0.258623       0.025861
 103.643   0.4782714844  0.86449     2682.50000 0.9683       0.316963       0.031693
 -83.306   0.4829101562  0.75670      793.50000 0.9747       0.253031       0.025302
 -83.985   0.4875488281  0.75980      793.50000 0.9753       0.247429       0.024742
 -84.707   0.4921875000  0.76043      793.50000 0.9758       0.241821       0.024181
-121.962   0.4968261719  0.77812      308.50000 0.7041       2.958686       0.295863
 -85.477   0.4968261719  0.75867      793.50000 0.9764       0.236212       0.023620
-121.902   0.5014648438  0.78277      308.50000 0.6996       3.003674       0.300362
 -86.297   0.5014648438  0.75458      793.50000 0.9769       0.230605       0.023060
2009  13 14 42  6 350
  22.193   0.1442871094  0.76173     3580.00000 0.8253       1.747160       0.174708
  44.832   0.1442871094  0.75704     3583.50000 0.7641       2.358726       0.235867
  25.378   0.1489257812  0.76093     3579.50000 0.8305       1.694868       0.169487
  22.250   0.1489257812  0.77318     3580.00000 0.8302       1.698353       0.169827
  44.407   0.1489257812  0.81214     3583.50000 0.7592       2.408085       0.240804
  42.889   0.1489257812  0.79427     3584.00000 0.7602       2.397978       0.239785
  29.549   0.1535644531  0.76805     3579.00000 0.8358       1.642506       0.164248
  24.965   0.1535644531  0.77533     3579.50000 0.8363       1.637321       0.163732
  22.026   0.1535644531  0.78537     3580.00000 0.8356       1.643903       0.164382
  44.106   0.1535644531  0.85718     3583.50000 0.7511       2.489259       0.248923
  42.791   0.1535644531  0.84588     3584.00000 0.7497       2.503004       0.250284
  28.875   0.1582031250  0.78630     3579.00000 0.8419       1.580932       0.158092
  24.377   0.1582031250  0.79139     3579.50000 0.8425       1.575043       0.157504
  21.569   0.1582031250  0.79883     3580.00000 0.8417       1.583060       0.158298
  43.888   0.1582031250  0.88480     3583.50000 0.7400       2.599587       0.259957
  42.744   0.1582031250  0.88409     3584.00000 0.7349       2.650887       0.265064
  28.113   0.1628417969  0.80108     3579.00000 0.8483       1.516910       0.151691
  23.643   0.1628417969  0.80757     3579.50000 0.8491       1.508860       0.150886
  20.917   0.1628417969  0.81403     3580.00000 0.8484       1.516267       0.151619
  27.279   0.1674804688  0.79767     3579.00000 0.8548       1.451632       0.145163
  22.789   0.1674804688  0.80618     3579.50000 0.8560       1.440098       0.144009
  20.100   0.1674804688  0.81470     3580.00000 0.8555       1.444852       0.144479
-133.471   0.1674804688  0.75565     4026.00000 0.9333       0.667011       0.066701
  26.390   0.1721191406  0.80484     3579.00000 0.8614       1.386301       0.138630
  21.837   0.1721191406  0.81744     3579.50000 0.8630       1.370282       0.137028
-134.146   0.1721191406  0.78606     4026.00000 0.9302       0.697590       0.069758
  25.459   0.1767578125  0.80739     3579.00000 0.8678       1.321965       0.132196
  20.811   0.1767578125  0.82389     3579.50000 0.8699       1.300870       0.130087
-135.010   0.1767578125  0.77367     4025.50000 0.9319       0.681211       0.068121
-134.570   0.1767578125  0.81311     4026.00000 0.9273       0.727256       0.072724
  24.502   0.1813964844  0.79858     3579.00000 0.8741       1.259441       0.125944
  19.731   0.1813964844  0.81594     3579.50000 0.8767       1.233086       0.123308
-135.072   0.1813964844  0.76659     4025.50000 0.9307       0.693485       0.069347
-134.750   0.1813964844  0.80652     4026.00000 0.9245       0.755220       0.075519
  23.535   0.1860351562  0.79820     3579.00000 0.8801       1.199293       0.119929
  18.619   0.1860351562  0.81556     3579.50000 0.8832       1.167845       0.116784
-133.814   0.1860351562  0.75040     4025.00000 0.9321       0.679034       0.067903
-134.954   0.1860351562  0.79145     4025.50000 0.9298       0.702240       0.070222
-134.698   0.1860351562  0.82865     4026.00000 0.9220       0.780544       0.078049
  22.576   0.1906738281  0.78269     3579.00000 0.8858       1.141853       0.114185
  17.499   0.1906738281  0.80020     3579.50000 0.8894       1.105746       0.110575
-134.674   0.1906738281  0.78228     4025.50000 0.9293       0.707133       0.070711
-134.431   0.1906738281  0.81963     4026.00000 0.9198       0.802236       0.080217
  21.642   0.1953125000  0.76911     3579.00000 0.8913       1.087272       0.108727
  16.393   0.1953125000  0.78368     3579.50000 0.8953       1.047119       0.104712
-134.250   0.1953125000  0.80346     4025.50000 0.9292       0.708003       0.070796
-133.967   0.1953125000  0.83428     4026.00000 0.9181       0.819378       0.081928
-133.702   0.1999511719  0.78919     4025.50000 0.9295       0.704890       0.070484
-133.329   0.1999511719  0.81975     4026.00000 0.9169       0.831254       0.083113
 -49.214   0.2509765625  0.75468     2298.00000 0.8937       1.063317       0.106330
 -91.005   0.2556152344  0.81187     3876.00000 0.8904       1.096329       0.109631
 -93.460   0.2556152344  0.85465     3876.50000 0.8789       1.211389       0.121139
 -90.767   0.2602539062  0.80856     3876.00000 0.8922       1.077541       0.107753
 -93.342   0.2602539062  0.85327     3876.50000 0.8814       1.186328       0.118633
 -90.528   0.2648925781  0.84715     3876.00000 0.8941       1.058900       0.105889
 -93.227   0.2648925781  0.87681     3876.50000 0.8839       1.160753       0.116075
 -95.321   0.2648925781  0.89108     3877.00000 0.8598       1.402411       0.140236
 -90.289   0.2695312500  0.84516     3876.00000 0.8960       1.040483       0.104047
 -93.117   0.2695312500  0.87568     3876.50000 0.8865       1.134817       0.113482
 -95.318   0.2695312500  0.89047     3877.00000 0.8627       1.372632       0.137258
 -92.535   0.2695312500  0.75241     3887.00000 0.9042       0.957910       0.095781
  76.856   0.2741699219  0.79593     3560.00000 0.6775       3.225754       0.322543
 -90.051   0.2741699219  0.84317     3876.00000 0.8978       1.022349       0.102234
 -93.015   0.2741699219  0.87437     3876.50000 0.8891       1.108636       0.110864
 -95.328   0.2741699219  0.88958     3877.00000 0.8658       1.342150       0.134209
 -87.335   0.2788085938  0.78765     3875.50000 0.8989       1.010933       0.101089
 -89.815   0.2788085938  0.84120     3876.00000 0.8995       1.004535       0.100452
 -92.922   0.2788085938  0.87294     3876.50000 0.8918       1.082306       0.108230
 -95.352   0.2788085938  0.88848     3877.00000 0.8689       1.311152       0.131109
 -87.046   0.2834472656  0.83549     3875.50000 0.8997       1.003299       0.100325
 -89.583   0.2834472656  0.86836     3876.00000 0.9013       0.987069       0.098706
 -92.841   0.2834472656  0.88633     3876.50000 0.8944       1.055899       0.105590
 -95.394   0.2834472656  0.89577     3877.00000 0.8720       1.279790       0.127972
 -86.762   0.2880859375  0.83334     3875.50000 0.9004       0.996386       0.099633
 -89.355   0.2880859375  0.86641     3876.00000 0.9030       0.969969       0.096996
 -92.772   0.2880859375  0.88451     3876.50000 0.8971       1.029475       0.102947
 -95.453   0.2880859375  0.89409     3877.00000 0.8752       1.248188       0.124811
 -86.483   0.2927246094  0.83112     3875.50000 0.9010       0.990169       0.099011
 -89.134   0.2927246094  0.86426     3876.00000 0.9047       0.953243       0.095323
 -92.719   0.2927246094  0.88242     3876.50000 0.8997       1.003083       0.100308
 -95.534   0.2927246094  0.89210     3877.00000 0.8784       1.216448       0.121637
 -86.209   0.2973632812  0.82873     3875.50000 0.9015       0.984621       0.098456
 -88.921   0.2973632812  0.86185     3876.00000 0.9063       0.936890       0.093688
 -92.684   0.2973632812  0.88000     3876.50000 0.9023       0.976757       0.097675
 -95.638   0.2973632812  0.88975     3877.00000 0.8815       1.184652       0.118457
 -68.023   0.3020019531  0.76751      374.00000 0.8331       1.669696       0.166950
 -85.941   0.3020019531  0.86250     3875.50000 0.9020       0.979707       0.097965
 -88.716   0.3020019531  0.87851     3876.00000 0.9079       0.920910       0.092090
 -92.669   0.3020019531  0.88667     3876.50000 0.9049       0.950532       0.095053
 -95.766   0.3020019531  0.89148     3877.00000 0.8847       1.152868       0.115278
 -67.878   0.3066406250  0.76444      374.00000 0.8310       1.689752       0.168952
 -85.679   0.3066406250  0.85922     3875.50000 0.9025       0.975392       0.097533
 -88.521   0.3066406250  0.87491     3876.00000 0.9095       0.905294       0.090528
 -92.677   0.3066406250  0.88299     3876.50000 0.9076       0.924432       0.092443
 -95.922   0.3066406250  0.88787     3877.00000 0.8879       1.121153       0.112107
 -85.423   0.3112792969  0.85549     3875.50000 0.9028       0.971637       0.097157
 -88.338   0.3112792969  0.87079     3876.00000 0.9110       0.890033       0.089002
 -92.711   0.3112792969  0.87877     3876.50000 0.9102       0.898480       0.089848
 -96.107   0.3112792969  0.88371     3877.00000 0.8911       1.089557       0.108947
  78.876   0.3159179688  0.84259     3559.50000 0.7944       2.056244       0.205618
 -85.173   0.3159179688  0.85133     3875.50000 0.9032       0.968405       0.096834
 -88.168   0.3159179688  0.86620     3876.00000 0.9125       0.875115       0.087510
 -92.773   0.3159179688  0.87406     3876.50000 0.9127       0.872696       0.087269
 -96.324   0.3159179688  0.87905     3877.00000 0.8942       1.058120       0.105803
  78.866   0.3205566406  0.82738     3559.50000 0.8006       1.994313       0.199424
 -84.929   0.3205566406  0.84688     3875.50000 0.9034       0.965654       0.096558
 -88.011   0.3205566406  0.86128     3876.00000 0.9139       0.860528       0.086051
 -92.866   0.3205566406  0.86901     3876.50000 0.9153       0.847098       0.084709
 -96.576   0.3205566406  0.87404     3877.00000 0.8973       1.026882       0.102679
  78.863   0.3251953125  0.81361     3559.50000 0.8065       1.935417       0.193533
 -84.692   0.3251953125  0.86735     3875.50000 0.9037       0.963345       0.096327
 -87.870   0.3251953125  0.87255     3876.00000 0.9154       0.846257       0.084624
 -92.993   0.3251953125  0.87216     3876.50000 0.9178       0.821705       0.082170
 -96.865   0.3251953125  0.87105     3877.00000 0.9004       0.995875       0.099579
  78.866   0.3298339844  0.78536     3559.50000 0.8121       1.879576       0.187948
 -87.745   0.3298339844  0.86736     3876.00000 0.9168       0.832289       0.083227
 -93.158   0.3298339844  0.86667     3876.50000 0.9203       0.796533       0.079653
 -97.194   0.3298339844  0.86553     3877.00000 0.9035       0.965129       0.096504
 -87.637   0.3344726562  0.86269     3876.00000 0.9181       0.818610       0.081859
 -93.365   0.3344726562  0.86169     3876.50000 0.9228       0.771601       0.077160
 -97.565   0.3344726562  0.86051     3877.00000 0.9065       0.934675       0.093459
 -87.548   0.3391113281  0.85877     3876.00000 0.9195       0.805206       0.080519
 -93.615   0.3391113281  0.85744     3876.50000 0.9253       0.746924       0.074692
 -97.982   0.3391113281  0.85621     3877.00000 0.9096       0.904538       0.090445
 -87.477   0.3437500000  0.85570     3876.00000 0.9208       0.792064       0.079205
 -93.915   0.3437500000  0.85401     3876.50000 0.9277       0.722521       0.072252
 -98.449   0.3437500000  0.85273     3877.00000 0.9125       0.874746       0.087466
 -87.426   0.3483886719  0.87173     3876.00000 0.9221       0.779171       0.077915
 -94.267   0.3483886719  0.86385     3876.50000 0.9302       0.698411       0.069841
 -98.969   0.3483886719  0.85201     3877.00000 0.9155       0.845325       0.084525
-116.327   0.3530273438  0.76246     1919.50000 0.9010       0.990348       0.099031
 -87.396   0.3530273438  0.87059     3876.00000 0.9234       0.766516       0.076650
 -94.675   0.3530273438  0.86201     3876.50000 0.9325       0.674612       0.067461
 -99.545   0.3530273438  0.84964     3877.00000 0.9184       0.816299       0.081622
-116.331   0.3576660156  0.75929     1919.50000 0.9008       0.991913       0.099188
 -87.387   0.3576660156  0.87008     3876.00000 0.9246       0.754088       0.075407
 -95.145   0.3576660156  0.86074     3876.50000 0.9349       0.651146       0.065114
-100.182   0.3576660156  0.84781     3877.00000 0.9212       0.787695       0.078762
   3.737   0.3623046875  0.75727      303.00000 0.9556       0.444329       0.044431
-116.335   0.3623046875  0.75097     1919.50000 0.9007       0.993253       0.099323
 -87.399   0.3623046875  0.86999     3876.00000 0.9258       0.741878       0.074186
 -95.682   0.3623046875  0.85983     3876.50000 0.9372       0.628030       0.062803
-100.886   0.3623046875  0.84632     3877.00000 0.9241       0.759539       0.075947
   3.923   0.3669433594  0.76994      303.00000 0.9542       0.458011       0.045799
 -87.434   0.3669433594  0.87011     3876.00000 0.9270       0.729874       0.072986
 -96.289   0.3669433594  0.85908     3876.50000 0.9395       0.605289       0.060529
-101.660   0.3669433594  0.84494     3877.00000 0.9268       0.731856       0.073179
   4.096   0.3715820312  0.78412      303.00000 0.9528       0.472021       0.047200
 -87.491   0.3715820312  0.87025     3876.00000 0.9282       0.718070       0.071805
 -96.974   0.3715820312  0.85828     3876.50000 0.9417       0.582944       0.058294
-102.510   0.3715820312  0.84351     3877.00000 0.9295       0.704675       0.070461
   4.259   0.3762207031  0.79844      303.00000 0.9514       0.486352       0.048633
 -87.570   0.3762207031  0.87024     3876.00000 0.9294       0.706459       0.070644
 -97.742   0.3762207031  0.85728     3876.50000 0.9439       0.561021       0.056102
-103.443   0.3762207031  0.84185     3877.00000 0.9322       0.678022       0.067796
   4.412   0.3808593750  0.87110      303.00000 0.9499       0.500997       0.050097
 -87.672   0.3808593750  0.88533     3876.00000 0.9305       0.695033       0.069501
 -98.599   0.3808593750  0.87533     3876.50000 0.9460       0.539544       0.053954
-104.465   0.3808593750  0.84833     3877.00000 0.9348       0.651928       0.065187
   4.556   0.3854980469  0.87168      303.00000 0.9484       0.515952       0.051593
 -87.798   0.3854980469  0.88479     3876.00000 0.9316       0.683787       0.068377
 -99.553   0.3854980469  0.87417     3876.50000 0.9481       0.518541       0.051854
-105.582   0.3854980469  0.84593     3877.00000 0.9374       0.626425       0.062637
   4.692   0.3901367188  0.87156      303.00000 0.9469       0.531210       0.053118
 -87.946   0.3901367188  0.88367     3876.00000 0.9327       0.672718       0.067270
-100.610   0.3901367188  0.87241     3876.50000 0.9502       0.498039       0.049804
-106.804   0.3901367188  0.84290     3877.00000 0.9399       0.601546       0.060150
   4.820   0.3947753906  0.87088      303.00000 0.9453       0.546767       0.054674
 -88.117   0.3947753906  0.88185     3876.00000 0.9338       0.661820       0.066180
-101.780   0.3947753906  0.86994     3876.50000 0.9522       0.478071       0.047807
-108.139   0.3947753906  0.83911     3877.00000 0.9423       0.577327       0.057728
   4.942   0.3994140625  0.86976      303.00000 0.9437       0.562618       0.056259
 -88.310   0.3994140625  0.87920     3876.00000 0.9349       0.651090       0.065107
-103.069   0.3994140625  0.86664     3876.50000 0.9541       0.458668       0.045867
-109.595   0.3994140625  0.83446     3877.00000 0.9446       0.553810       0.055377
   5.058   0.4040527344  0.86828      303.00000 0.9421       0.578758       0.057872
 -88.527   0.4040527344  0.87563     3876.00000 0.9359       0.640525       0.064051
-104.488   0.4040527344  0.86240     3876.50000 0.9560       0.439867       0.043987
-111.184   0.4040527344  0.82884     3877.00000 0.9469       0.531038       0.053100
   5.168   0.4086914062  0.86652      303.00000 0.9405       0.595184       0.059515
 -88.766   0.4086914062  0.87100     3876.00000 0.9370       0.630122       0.063010
-106.046   0.4086914062  0.85710     3876.50000 0.9578       0.421707       0.042171
-112.914   0.4086914062  0.82213     3877.00000 0.9491       0.509059       0.050903
   5.273   0.4133300781  0.86456      303.00000 0.9388       0.611893       0.061185
 -89.027   0.4133300781  0.86518     3876.00000 0.9380       0.619882       0.061986
-107.752   0.4133300781  0.85062     3876.50000 0.9596       0.404229       0.040423
-114.798   0.4133300781  0.81421     3877.00000 0.9512       0.487926       0.048790
   5.373   0.4179687500  0.85041      303.00000 0.9371       0.628881       0.062884
 -89.310   0.4179687500  0.85325     3876.00000 0.9390       0.609801       0.060978
-109.617   0.4179687500  0.84995     3876.50000 0.9613       0.387478       0.038748
-116.846   0.4179687500  0.82766     3877.00000 0.9532       0.467699       0.046767
   5.469   0.4226074219  0.84787      303.00000 0.9354       0.646145       0.064610
 -89.614   0.4226074219  0.84338     3876.00000 0.9400       0.599878       0.059986
-111.650   0.4226074219  0.84015     3876.50000 0.9628       0.371503       0.037150
-119.070   0.4226074219  0.81753     3877.00000 0.9552       0.448445       0.044842
   5.562   0.4272460938  0.84527      303.00000 0.9336       0.663683       0.066364
 -89.940   0.4272460938  0.83187     3876.00000 0.9410       0.590113       0.059009
-113.859   0.4272460938  0.82872     3876.50000 0.9644       0.356356       0.035635
-121.481   0.4272460938  0.80576     3877.00000 0.9570       0.430232       0.043021
   5.651   0.4318847656  0.84264      303.00000 0.9319       0.681492       0.068144
 -88.445   0.4318847656  0.75266     1052.50000 0.9875       0.124701       0.012470
 -90.287   0.4318847656  0.81863     3876.00000 0.9420       0.580505       0.058049
-116.254   0.4318847656  0.81559     3876.50000 0.9658       0.342093       0.034209
-124.087   0.4318847656  0.79227     3877.00000 0.9587       0.413141       0.041312
   5.736   0.4365234375  0.83999      303.00000 0.9300       0.699569       0.069952
 -92.533   0.4365234375  0.75789     1052.50000 0.9847       0.152639       0.015264
  66.882   0.4365234375  0.75111     1054.50000 0.7888       2.112160       0.211213
 -96.028   0.4365234375  0.75435     3422.50000 0.9055       0.945236       0.094523
 -90.654   0.4365234375  0.80363     3876.00000 0.9429       0.571054       0.057104
-118.840   0.4365234375  0.80071     3876.50000 0.9671       0.328773       0.032877
-126.896   0.4365234375  0.77703     3877.00000 0.9603       0.397254       0.039724
   5.819   0.4411621094  0.83735      303.00000 0.9282       0.717913       0.071786
 -95.358   0.4411621094  0.75766     1052.50000 0.9818       0.181591       0.018159
  66.994   0.4411621094  0.75097     1054.50000 0.7843       2.156551       0.215652
 -96.326   0.4411621094  0.76497     3422.50000 0.9019       0.981424       0.098142
 -91.041   0.4411621094  0.78691     3876.00000 0.9438       0.561759       0.056174
-121.622   0.4411621094  0.78412     3876.50000 0.9684       0.316456       0.031645
-129.913   0.4411621094  0.76005     3877.00000 0.9617       0.382660       0.038264
   5.898   0.4458007812  0.83472      303.00000 0.9264       0.736521       0.073646
 -97.408   0.4458007812  0.75298     1052.50000 0.9789       0.211328       0.021133
 -96.596   0.4458007812  0.77526     3422.50000 0.8982       1.018459       0.101846
 -91.449   0.4458007812  0.76860     3876.00000 0.9447       0.552620       0.055260
-124.599   0.4458007812  0.76593     3876.50000 0.9695       0.305205       0.030520
   5.976   0.4504394531  0.83213      303.00000 0.9245       0.755392       0.075533
 -96.841   0.4504394531  0.78512     3422.50000 0.8944       1.056325       0.105632
 -80.432   0.4504394531  0.75027     3875.50000 0.9037       0.962842       0.096271
   6.050   0.4550781250  0.82957      303.00000 0.9226       0.774523       0.077446
 -97.062   0.4550781250  0.79448     3422.50000 0.8905       1.095012       0.109501
   6.123   0.4597167969  0.82705      303.00000 0.9206       0.793913       0.079384
 -97.263   0.4597167969  0.80330     3422.50000 0.8865       1.134507       0.113451
 124.289   0.4643554688  0.75912     2277.50000 0.9049       0.951327       0.095131
 -97.446   0.4643554688  0.79695     3422.50000 0.8825       1.174798       0.117480
 124.371   0.4689941406  0.76446     2277.50000 0.9025       0.974726       0.097471
 -97.612   0.4689941406  0.80543     3422.50000 0.8784       1.215877       0.121588
 124.443   0.4736328125  0.76974     2277.50000 0.9001       0.998618       0.099860
 -97.763   0.4736328125  0.81319     3422.50000 0.8742       1.257732       0.125773
 124.506   0.4782714844  0.77495     2277.50000 0.8977       1.022998       0.102298
 -97.900   0.4782714844  0.82024     3422.50000 0.8700       1.300354       0.130035
 124.562   0.4829101562  0.78009     2277.50000 0.8952       1.047864       0.104785
 -98.026   0.4829101562  0.82653     3422.50000 0.8656       1.343735       0.134374
 124.610   0.4875488281  0.78516     2277.50000 0.8927       1.073212       0.107320
  69.039   0.4875488281  0.75515     2499.00000 0.7184       2.815841       0.281582
 -98.140   0.4875488281  0.83198     3422.50000 0.8612       1.387867       0.138787
 124.652   0.4921875000  0.79017     2277.50000 0.8901       1.099040       0.109902
  69.063   0.4921875000  0.76212     2499.00000 0.7117       2.882616       0.288259
 -98.245   0.4921875000  0.83645     3422.50000 0.8567       1.432741       0.143274
 124.687   0.4968261719  0.79510     2277.50000 0.8875       1.125343       0.112533
  69.087   0.4968261719  0.76847     2499.00000 0.7050       2.950321       0.295030
 124.717   0.5014648438  0.79995     2277.50000 0.8848       1.152119       0.115210
2009  13 15 50  1 350
 106.377   0.1303710938  0.77630     3990.50000 0.8684       1.316650       0.131647
 104.819   0.1442871094  0.75098     3994.00000 0.6665       3.334875       0.333454
 104.149   0.1721191406  0.77427     3985.50000 0.8693       1.307465       0.130731
 103.132   0.1767578125  0.78596     3985.50000 0.8676       1.324089       0.132396
 104.679   0.1813964844  0.79913     3985.00000 0.8738       1.261714       0.126169
 103.645   0.1860351562  0.79891     3985.00000 0.8717       1.283186       0.128317
-101.994   0.2092285156  0.77007     3432.00000 0.8504       1.495897       0.149590
-102.014   0.2138671875  0.76927     3432.00000 0.8529       1.471154       0.147115
  47.785   0.2138671875  0.77982     3803.50000 0.7912       2.087778       0.208777
-102.012   0.2185058594  0.75750     3432.00000 0.8553       1.446751       0.144675
-102.314   0.2185058594  0.75827     3432.50000 0.8743       1.256607       0.125661
-101.988   0.2231445312  0.75248     3432.00000 0.8577       1.422753       0.142275
  49.568   0.2231445312  0.77757     3804.00000 0.8161       1.839268       0.183921
  50.391   0.2277832031  0.76643     3804.00000 0.8191       1.808847       0.180879
-123.800   0.2324218750  0.75091     2573.00000 0.9183       0.816744       0.081674
-123.582   0.2370605469  0.78118     2573.00000 0.9201       0.798738       0.079873
-123.364   0.2416992188  0.77945     2573.00000 0.9218       0.781926       0.078192
-126.074   0.2463378906  0.77316     2572.50000 0.9253       0.747393       0.074738
-123.145   0.2463378906  0.77538     2573.00000 0.9234       0.766305       0.076630
-126.095   0.2509765625  0.76894     2572.50000 0.9269       0.730754       0.073075
-122.922   0.2509765625  0.76030     2573.00000 0.9248       0.751858       0.075186
-121.999   0.2509765625  0.75853     2573.50000 0.9205       0.794652       0.079465
